0.4326172,0.4338379,0.4333496,0.43432617,0.43554688,0.43481445,0.43530273,0.43554688,0.43603516,0.43603516,0.43603516,0.4362793,0.43701172,0.43701172,0.43725586,0.4375,0.43798828,0.43798828,0.43847656,0.4387207,0.43920898,0.43945312,0.43969727,0.44018555,0.4404297,0.44067383,0.4411621,0.4416504,0.44213867,0.4423828,0.44262695,0.44311523,0.44335938,0.44384766,0.44433594,0.44482422,0.44506836,0.4453125,0.44580078,0.44604492,0.4465332,0.44702148,0.44750977,0.44799805,0.4482422,0.44873047,0.4489746,0.4494629,0.44995117,0.45043945,0.4506836,0.45117188,0.45166016,0.4519043,0.45239258,0.45263672,0.453125,0.45336914,0.45385742,0.4543457,0.45507812,0.4555664,0.4560547,0.45629883,0.4567871,0.4572754,0.45776367,0.45825195,0.45874023,0.45898438,0.45947266,0.45996094,0.46020508,0.4609375,0.46142578,0.46166992,0.4621582,0.46264648,0.46289062,0.4633789,0.4638672,0.46411133,0.46435547,0.4645996,0.46533203,0.46557617,0.46606445,0.4663086,0.46679688,0.46728516,0.46777344,0.46826172,0.46850586,0.46899414,0.46948242,0.4699707,0.47045898,0.4711914,0.47143555,0.47216797,0.47265625,0.47314453,0.47338867,0.4741211,0.47460938,0.47509766,0.47558594,0.47607422,0.4765625,0.47729492,0.4777832,0.47802734,0.47827148,0.47924805,0.4802246,0.4802246,0.48046875,0.4814453,0.48242188,0.4819336,0.47851562,0.47729492,0.46875,0.35253906,0.3239746,0.31518555,0.3125,0.30932617,0.30859375,0.30786133,0.30688477,0.3083496,0.3076172,0.3076172,0.30810547,0.3100586,0.31298828,0.32226562,0.49194336,0.50927734,0.50683594,0.5083008,0.5073242,0.5078125,0.50927734,0.5078125,0.50634766,0.5053711,0.5058594,0.5073242,0.5073242,0.5078125,0.5053711,0.5048828,0.50439453,0.5053711,0.50634766,0.50634766,0.50634766,0.5073242,0.5083008,0.50878906,0.50927734,0.5097656,0.5107422,0.5107422,0.51123047,0.51220703,0.5131836,0.5131836,0.5136719,0.51464844,0.5151367,0.5161133,0.51660156,0.5175781,0.5180664,0.51904297,0.52001953,0.5205078,0.5214844,0.52197266,0.52246094,0.5229492,0.5239258,0.52441406,0.52490234,0.5253906,0.5263672,0.5263672,0.52734375,0.52783203,0.5283203,0.5288086,0.5292969,0.52978516,0.53027344,0.5307617,0.53125,0.5317383,0.53222656,0.53271484,0.5332031,0.5336914,0.5341797,0.53466797,0.53515625,0.53564453,0.5361328,0.5366211,0.53759766,0.53808594,0.5385742,0.5390625,0.54003906,0.54052734,0.5410156,0.5419922,0.54296875,0.54345703,0.5439453,0.5449219,0.54541016,0.5463867,0.546875,0.5473633,0.54785156,0.54833984,0.5488281,0.5493164,0.5498047,0.55029297,0.55078125,0.5517578,0.5517578,0.5527344,0.5527344,0.55322266,0.55371094,0.5541992,0.5546875,0.5551758,0.55566406,0.55615234,0.5566406,0.5571289,0.5576172,0.55810547,0.55859375,0.55908203,0.5595703,0.5600586,0.5620117,0.5620117,0.5649414
0.4326172,0.4338379,0.43310547,0.43432617,0.43554688,0.43481445,0.43530273,0.43530273,0.43603516,0.43603516,0.43603516,0.4362793,0.43676758,0.43701172,0.43725586,0.4375,0.43774414,0.43798828,0.43847656,0.4387207,0.43920898,0.43945312,0.43969727,0.44018555,0.4404297,0.44091797,0.4411621,0.44140625,0.44189453,0.44213867,0.44262695,0.44311523,0.44335938,0.44384766,0.4440918,0.44458008,0.44506836,0.4453125,0.44580078,0.44628906,0.4465332,0.44702148,0.44750977,0.44799805,0.4482422,0.44873047,0.44921875,0.4494629,0.44995117,0.45043945,0.4506836,0.45117188,0.45141602,0.4519043,0.45239258,0.45263672,0.453125,0.45361328,0.45410156,0.45458984,0.45507812,0.4555664,0.45581055,0.45629883,0.4567871,0.4572754,0.45776367,0.4580078,0.4584961,0.45898438,0.45947266,0.4597168,0.46020508,0.4609375,0.46118164,0.46166992,0.46191406,0.46240234,0.46289062,0.4633789,0.46362305,0.46411133,0.46435547,0.4645996,0.4650879,0.46557617,0.46606445,0.46655273,0.46704102,0.46728516,0.46777344,0.46826172,0.46850586,0.46899414,0.46948242,0.4699707,0.47045898,0.47094727,0.47143555,0.47192383,0.4724121,0.4729004,0.47338867,0.47387695,0.4741211,0.47485352,0.4753418,0.47583008,0.47631836,0.47680664,0.47753906,0.47753906,0.47802734,0.47875977,0.47973633,0.47998047,0.4802246,0.48095703,0.4819336,0.48168945,0.4794922,0.47998047,0.47753906,0.39941406,0.33325195,0.31689453,0.31396484,0.3095703,0.3095703,0.3083496,0.30737305,0.30810547,0.3076172,0.30786133,0.30688477,0.30615234,0.30786133,0.30981445,0.3137207,0.32250977,0.44848633,0.4921875,0.50683594,0.50439453,0.50097656,0.5004883,0.49951172,0.50341797,0.5058594,0.5078125,0.5078125,0.5073242,0.5053711,0.5053711,0.5048828,0.5024414,0.50439453,0.5053711,0.5058594,0.50634766,0.5078125,0.5083008,0.50878906,0.5097656,0.5102539,0.5107422,0.51123047,0.51220703,0.5126953,0.5131836,0.5136719,0.51416016,0.5151367,0.515625,0.51660156,0.51708984,0.5180664,0.51904297,0.51953125,0.5205078,0.5209961,0.52197266,0.52246094,0.5229492,0.5239258,0.52441406,0.52490234,0.5253906,0.5258789,0.52685547,0.52734375,0.52783203,0.5283203,0.5288086,0.5292969,0.52978516,0.53027344,0.5307617,0.53125,0.5317383,0.53222656,0.53271484,0.5332031,0.5336914,0.5341797,0.53466797,0.53515625,0.53564453,0.5361328,0.5371094,0.53759766,0.53808594,0.5385742,0.5390625,0.54003906,0.54052734,0.5415039,0.5419922,0.54296875,0.54345703,0.5444336,0.5449219,0.54541016,0.54589844,0.546875,0.5473633,0.54785156,0.54833984,0.5488281,0.5493164,0.5498047,0.55029297,0.55078125,0.55126953,0.5517578,0.5522461,0.5527344,0.55322266,0.55371094,0.5541992,0.5541992,0.5546875,0.5551758,0.55566406,0.55615234,0.5571289,0.5571289,0.55810547,0.55859375,0.55908203,0.5595703,0.5595703,0.5620117,0.5620117,0.5649414
0.43237305,0.43359375,0.4333496,0.43432617,0.43530273,0.43481445,0.43530273,0.43530273,0.43603516,0.43603516,0.43603516,0.4362793,0.43701172,0.43701172,0.43725586,0.4375,0.43774414,0.43798828,0.43823242,0.4387207,0.43896484,0.43945312,0.43969727,0.44018555,0.4404297,0.44067383,0.4411621,0.4416504,0.44213867,0.44213867,0.44262695,0.44311523,0.44335938,0.44384766,0.4440918,0.44458008,0.44506836,0.4453125,0.44580078,0.44628906,0.44677734,0.44702148,0.44750977,0.4477539,0.4482422,0.44873047,0.4489746,0.4494629,0.44970703,0.4501953,0.4506836,0.45092773,0.45141602,0.4519043,0.45214844,0.45263672,0.453125,0.45336914,0.45410156,0.45458984,0.45507812,0.45532227,0.45581055,0.45629883,0.45654297,0.45703125,0.45751953,0.4580078,0.4584961,0.45898438,0.45947266,0.4597168,0.46020508,0.46069336,0.46118164,0.46166992,0.46191406,0.46240234,0.46289062,0.46313477,0.4633789,0.4638672,0.46411133,0.4645996,0.4650879,0.46557617,0.46606445,0.46655273,0.46679688,0.46704102,0.4675293,0.46801758,0.46850586,0.46899414,0.46923828,0.46972656,0.47021484,0.47070312,0.4711914,0.4716797,0.47216797,0.47265625,0.4729004,0.4736328,0.47387695,0.47436523,0.47509766,0.47558594,0.47607422,0.4765625,0.47729492,0.47753906,0.4777832,0.47851562,0.47924805,0.47973633,0.47973633,0.48046875,0.4814453,0.48095703,0.47973633,0.4802246,0.48266602,0.4724121,0.3449707,0.31835938,0.3154297,0.31103516,0.31054688,0.30908203,0.30810547,0.30786133,0.30688477,0.3076172,0.3076172,0.30810547,0.30639648,0.30541992,0.3046875,0.30444336,0.30395508,0.3083496,0.46777344,0.5004883,0.49731445,0.5004883,0.50390625,0.50390625,0.50341797,0.50390625,0.5078125,0.5073242,0.50634766,0.5073242,0.50634766,0.5048828,0.5029297,0.50439453,0.5053711,0.5058594,0.50683594,0.5078125,0.5083008,0.50927734,0.5097656,0.5107422,0.51123047,0.51171875,0.5126953,0.5131836,0.5136719,0.51416016,0.51464844,0.515625,0.5161133,0.51708984,0.5180664,0.51904297,0.51953125,0.52001953,0.5209961,0.5214844,0.52246094,0.5229492,0.5234375,0.52441406,0.52490234,0.5253906,0.5258789,0.52685547,0.52734375,0.52783203,0.5283203,0.5288086,0.5292969,0.52978516,0.53027344,0.5307617,0.53125,0.53222656,0.53271484,0.5332031,0.5332031,0.5336914,0.5341797,0.53466797,0.53515625,0.53564453,0.5361328,0.5371094,0.53759766,0.53808594,0.5385742,0.5390625,0.54003906,0.54052734,0.5410156,0.5419922,0.54248047,0.54345703,0.5439453,0.5444336,0.54541016,0.54589844,0.5463867,0.546875,0.5473633,0.54833984,0.54833984,0.5488281,0.5498047,0.55029297,0.55078125,0.55126953,0.5517578,0.5522461,0.5527344,0.55322266,0.55371094,0.5541992,0.5541992,0.5546875,0.55566406,0.55566406,0.55615234,0.5571289,0.5571289,0.55810547,0.55859375,0.55908203,0.5595703,0.5600586,0.5620117,0.5620117,0.5649414
0.4326172,0.43359375,0.4333496,0.43408203,0.43530273,0.43481445,0.43530273,0.43530273,0.43603516,0.43579102,0.43603516,0.4362793,0.43701172,0.43701172,0.43725586,0.4375,0.43774414,0.43798828,0.43847656,0.43896484,0.43896484,0.43945312,0.43969727,0.44018555,0.4404297,0.44091797,0.4411621,0.4416504,0.44213867,0.44213867,0.44262695,0.4428711,0.44335938,0.44384766,0.4440918,0.44458008,0.44506836,0.4453125,0.44580078,0.44628906,0.4465332,0.44702148,0.44726562,0.4477539,0.4482422,0.44848633,0.4489746,0.44921875,0.44970703,0.4501953,0.4506836,0.45092773,0.45141602,0.45166016,0.45214844,0.45263672,0.453125,0.45336914,0.45385742,0.4543457,0.45483398,0.45532227,0.45581055,0.4560547,0.45654297,0.45703125,0.45751953,0.45776367,0.4584961,0.45898438,0.45947266,0.4597168,0.45996094,0.46069336,0.4609375,0.46142578,0.46166992,0.4621582,0.46264648,0.46313477,0.4633789,0.46362305,0.46411133,0.46435547,0.46484375,0.46533203,0.4658203,0.4663086,0.46655273,0.46704102,0.4675293,0.46777344,0.46826172,0.46875,0.46899414,0.46972656,0.47021484,0.47070312,0.4711914,0.47143555,0.47192383,0.47265625,0.4729004,0.47338867,0.4736328,0.4741211,0.47460938,0.4753418,0.47558594,0.47607422,0.4765625,0.47680664,0.47729492,0.47802734,0.4790039,0.47924805,0.47924805,0.47973633,0.48046875,0.4802246,0.4794922,0.48095703,0.48510742,0.4753418,0.36767578,0.32250977,0.31811523,0.31298828,0.3125,0.3100586,0.30908203,0.30810547,0.3071289,0.30737305,0.30688477,0.3071289,0.30639648,0.30566406,0.30273438,0.30029297,0.2998047,0.3017578,0.30126953,0.30566406,0.31079102,0.35083008,0.45825195,0.47558594,0.49169922,0.49951172,0.50439453,0.5058594,0.49780273,0.49536133,0.5024414,0.5078125,0.5058594,0.50341797,0.50439453,0.5048828,0.5058594,0.50683594,0.5083008,0.50878906,0.5097656,0.5102539,0.51123047,0.51171875,0.51220703,0.5126953,0.5131836,0.51416016,0.51464844,0.5151367,0.5161133,0.51660156,0.5175781,0.5185547,0.51904297,0.52001953,0.5205078,0.5214844,0.52197266,0.52246094,0.5234375,0.5239258,0.52441406,0.5253906,0.5258789,0.5263672,0.52685547,0.52783203,0.5283203,0.5288086,0.5292969,0.52978516,0.5307617,0.5307617,0.53125,0.5317383,0.53222656,0.5332031,0.5332031,0.5336914,0.5341797,0.53515625,0.53515625,0.53564453,0.5361328,0.5366211,0.53759766,0.53808594,0.5385742,0.5390625,0.5395508,0.54052734,0.5410156,0.5419922,0.54248047,0.54345703,0.5439453,0.5444336,0.54541016,0.54589844,0.5463867,0.546875,0.5473633,0.54785156,0.54833984,0.5488281,0.5498047,0.55029297,0.55078125,0.55126953,0.5517578,0.5517578,0.5522461,0.5527344,0.55322266,0.55371094,0.5541992,0.5546875,0.5551758,0.55566406,0.55615234,0.5566406,0.5571289,0.55810547,0.55859375,0.55908203,0.55908203,0.5595703,0.56152344,0.56152344,0.5644531
0.4326172,0.43359375,0.4333496,0.43432617,0.43530273,0.43481445,0.43530273,0.43530273,0.43603516,0.43579102,0.43603516,0.4362793,0.43701172,0.43701172,0.43725586,0.4375,0.43774414,0.43798828,0.43823242,0.4387207,0.43896484,0.43945312,0.43969727,0.44018555,0.4404297,0.44067383,0.4411621,0.4416504,0.44189453,0.44213867,0.44262695,0.4428711,0.44335938,0.44360352,0.4440918,0.44458008,0.44482422,0.4453125,0.44555664,0.44604492,0.44628906,0.44677734,0.44726562,0.4477539,0.44799805,0.44848633,0.44873047,0.44921875,0.44970703,0.44995117,0.45043945,0.45092773,0.45117188,0.45166016,0.45214844,0.45263672,0.45288086,0.45336914,0.45385742,0.45458984,0.45483398,0.45532227,0.45581055,0.45629883,0.45654297,0.45703125,0.4572754,0.45776367,0.45825195,0.45898438,0.45922852,0.4597168,0.46020508,0.46044922,0.4609375,0.46142578,0.46166992,0.4621582,0.46240234,0.46289062,0.4633789,0.4638672,0.46411133,0.46435547,0.4650879,0.46533203,0.46557617,0.4663086,0.46679688,0.46704102,0.4675293,0.46801758,0.46850586,0.46875,0.46923828,0.46972656,0.47021484,0.47070312,0.47094727,0.47143555,0.47192383,0.4724121,0.4729004,0.47338867,0.4736328,0.47387695,0.47436523,0.47485352,0.4753418,0.47583008,0.47631836,0.4765625,0.47680664,0.47753906,0.47827148,0.47851562,0.47851562,0.47875977,0.4790039,0.47924805,0.47827148,0.4790039,0.48413086,0.47558594,0.47924805,0.32348633,0.32055664,0.31567383,0.3154297,0.31152344,0.3100586,0.3088379,0.30786133,0.30737305,0.30688477,0.3071289,0.30615234,0.3059082,0.30419922,0.30322266,0.30126953,0.29956055,0.29638672,0.29785156,0.29614258,0.29541016,0.2944336,0.2939453,0.29663086,0.30078125,0.40844727,0.4831543,0.49536133,0.4958496,0.5019531,0.5058594,0.5102539,0.50878906,0.50390625,0.50439453,0.5058594,0.5073242,0.5078125,0.5083008,0.50927734,0.5102539,0.51123047,0.51171875,0.51220703,0.5126953,0.5131836,0.5136719,0.51464844,0.5151367,0.5161133,0.51660156,0.5175781,0.5185547,0.51904297,0.51953125,0.52001953,0.5209961,0.52197266,0.52246094,0.5229492,0.5239258,0.52441406,0.5253906,0.5258789,0.5263672,0.52685547,0.52783203,0.5283203,0.5288086,0.5292969,0.52978516,0.5307617,0.53125,0.53125,0.5317383,0.53271484,0.5332031,0.5336914,0.5336914,0.53466797,0.53466797,0.53515625,0.53564453,0.5361328,0.5366211,0.53759766,0.53808594,0.5385742,0.5390625,0.54003906,0.54052734,0.5410156,0.5415039,0.54248047,0.54296875,0.54345703,0.5444336,0.5449219,0.54541016,0.54589844,0.546875,0.546875,0.54785156,0.54833984,0.5488281,0.5493164,0.5498047,0.55029297,0.55078125,0.55126953,0.5517578,0.5522461,0.5527344,0.55322266,0.55371094,0.5541992,0.5551758,0.5551758,0.55566406,0.55615234,0.5566406,0.5571289,0.5576172,0.55859375,0.55859375,0.55908203,0.5595703,0.56152344,0.56103516,0.5644531
0.4326172,0.4333496,0.4333496,0.43432617,0.43530273,0.4345703,0.43530273,0.43530273,0.43603516,0.43579102,0.43603516,0.4362793,0.43676758,0.43701172,0.43725586,0.4375,0.43774414,0.43798828,0.43823242,0.4387207,0.43896484,0.43920898,0.43945312,0.4399414,0.4404297,0.44067383,0.4411621,0.4416504,0.44189453,0.44213867,0.4423828,0.4428711,0.44335938,0.44360352,0.4440918,0.44458008,0.44482422,0.4453125,0.44580078,0.44604492,0.4465332,0.44677734,0.44726562,0.44750977,0.44799805,0.44848633,0.44873047,0.44921875,0.44970703,0.4501953,0.45043945,0.4506836,0.45117188,0.45166016,0.4519043,0.45239258,0.45288086,0.45336914,0.45385742,0.4543457,0.45483398,0.45532227,0.45581055,0.4560547,0.45629883,0.45703125,0.45751953,0.45776367,0.45825195,0.45874023,0.45922852,0.4597168,0.46020508,0.46069336,0.4609375,0.46118164,0.46142578,0.46191406,0.46240234,0.46264648,0.46313477,0.46362305,0.4638672,0.46435547,0.4650879,0.46533203,0.46557617,0.46606445,0.46655273,0.46704102,0.46728516,0.46801758,0.46826172,0.46875,0.46923828,0.46948242,0.4699707,0.47021484,0.47070312,0.4711914,0.47143555,0.47192383,0.4724121,0.47265625,0.4729004,0.47338867,0.4736328,0.47436523,0.47460938,0.47509766,0.47583008,0.47583008,0.47607422,0.47680664,0.47729492,0.47753906,0.47705078,0.47753906,0.47729492,0.47729492,0.47631836,0.47631836,0.47875977,0.4814453,0.47680664,0.35791016,0.32202148,0.32006836,0.3173828,0.31347656,0.31103516,0.30908203,0.30859375,0.30786133,0.30737305,0.30688477,0.3059082,0.30493164,0.30322266,0.30249023,0.30151367,0.30004883,0.2980957,0.29638672,0.2944336,0.2932129,0.29174805,0.2919922,0.29296875,0.29345703,0.2944336,0.2998047,0.3100586,0.45043945,0.49243164,0.49951172,0.5058594,0.50927734,0.50390625,0.50341797,0.5053711,0.50634766,0.50683594,0.5073242,0.5083008,0.50927734,0.5107422,0.51123047,0.51171875,0.5126953,0.5126953,0.5136719,0.51416016,0.51464844,0.515625,0.5161133,0.51708984,0.5175781,0.5185547,0.51904297,0.52001953,0.5205078,0.5214844,0.52246094,0.5229492,0.5239258,0.52441406,0.52490234,0.5258789,0.5263672,0.52685547,0.52734375,0.52783203,0.5288086,0.5292969,0.52978516,0.53027344,0.5307617,0.53125,0.5317383,0.53222656,0.5332031,0.5336914,0.5336914,0.5341797,0.53466797,0.53515625,0.53564453,0.5361328,0.5371094,0.53759766,0.53808594,0.5385742,0.5390625,0.54003906,0.54052734,0.5410156,0.5415039,0.54248047,0.54296875,0.54345703,0.5439453,0.5444336,0.5449219,0.54589844,0.5463867,0.546875,0.5473633,0.54833984,0.5488281,0.5493164,0.5498047,0.55029297,0.55078125,0.55126953,0.5517578,0.5522461,0.5527344,0.5527344,0.55322266,0.55371094,0.5546875,0.5551758,0.55566406,0.55615234,0.5566406,0.5571289,0.5576172,0.55810547,0.55908203,0.55908203,0.5595703,0.56152344,0.56103516,0.5644531
0.43237305,0.4333496,0.4333496,0.43432617,0.43530273,0.4345703,0.43530273,0.43554688,0.4362793,0.43579102,0.43603516,0.4362793,0.43701172,0.43701172,0.43701172,0.4375,0.43798828,0.43798828,0.43823242,0.4387207,0.43896484,0.43945312,0.43969727,0.4399414,0.4404297,0.44091797,0.4411621,0.4416504,0.44189453,0.44213867,0.44262695,0.44311523,0.44335938,0.44360352,0.4440918,0.44433594,0.44482422,0.4453125,0.44555664,0.44604492,0.4465332,0.44677734,0.44726562,0.4477539,0.44799805,0.44848633,0.44873047,0.44921875,0.44970703,0.4501953,0.45043945,0.4506836,0.45117188,0.45166016,0.4519043,0.45239258,0.45288086,0.45336914,0.45385742,0.4543457,0.45458984,0.45507812,0.4555664,0.4560547,0.45629883,0.45703125,0.4572754,0.45776367,0.45825195,0.45874023,0.45898438,0.45947266,0.46020508,0.46044922,0.46069336,0.46118164,0.46142578,0.46191406,0.4621582,0.46264648,0.46313477,0.46362305,0.4638672,0.46411133,0.46484375,0.46484375,0.46533203,0.4658203,0.4663086,0.46679688,0.46728516,0.46777344,0.46826172,0.46875,0.46923828,0.46972656,0.4699707,0.47045898,0.47070312,0.4711914,0.4716797,0.47216797,0.4724121,0.47265625,0.4729004,0.4736328,0.47387695,0.47436523,0.47485352,0.4753418,0.47558594,0.47607422,0.4765625,0.47680664,0.47705078,0.47729492,0.47680664,0.47705078,0.4765625,0.47631836,0.4753418,0.47338867,0.4741211,0.48046875,0.47387695,0.47607422,0.32470703,0.32177734,0.3203125,0.31591797,0.31420898,0.31054688,0.30981445,0.30859375,0.3083496,0.30737305,0.3059082,0.30493164,0.30371094,0.30249023,0.3010254,0.30004883,0.29858398,0.29736328,0.2956543,0.29418945,0.2927246,0.2919922,0.29101562,0.29077148,0.28979492,0.29296875,0.2939453,0.2980957,0.46118164,0.50634766,0.50634766,0.5048828,0.5073242,0.50634766,0.5048828,0.5058594,0.50634766,0.50683594,0.5078125,0.50878906,0.5102539,0.5107422,0.51123047,0.51220703,0.5126953,0.5136719,0.51416016,0.51464844,0.5151367,0.5161133,0.51660156,0.51708984,0.5180664,0.5185547,0.51953125,0.5205078,0.5209961,0.52197266,0.52246094,0.5234375,0.5239258,0.52441406,0.5253906,0.5258789,0.52685547,0.52734375,0.52783203,0.5283203,0.5288086,0.5292969,0.53027344,0.5307617,0.53125,0.5317383,0.53222656,0.53271484,0.5332031,0.5336914,0.5341797,0.53466797,0.53515625,0.53564453,0.5361328,0.5371094,0.5371094,0.53808594,0.5385742,0.5390625,0.5395508,0.54003906,0.5410156,0.5415039,0.5419922,0.54296875,0.54345703,0.5439453,0.5444336,0.5449219,0.54541016,0.5463867,0.546875,0.5473633,0.54833984,0.5488281,0.5493164,0.5498047,0.55029297,0.55078125,0.55126953,0.5517578,0.5522461,0.5527344,0.5527344,0.55322266,0.55371094,0.5546875,0.5551758,0.55566406,0.55615234,0.5566406,0.5571289,0.5576172,0.55810547,0.55908203,0.55908203,0.5595703,0.56152344,0.5605469,0.56347656
0.43286133,0.4333496,0.4333496,0.43408203,0.43530273,0.4345703,0.43530273,0.43530273,0.4362793,0.43579102,0.43579102,0.4362793,0.43701172,0.43676758,0.43701172,0.4375,0.43774414,0.43798828,0.43823242,0.4387207,0.43896484,0.43920898,0.43969727,0.4399414,0.4404297,0.44091797,0.4411621,0.44140625,0.44189453,0.44213867,0.44262695,0.44311523,0.44335938,0.44360352,0.4440918,0.44433594,0.44482422,0.4453125,0.44555664,0.44580078,0.44628906,0.44677734,0.44726562,0.44750977,0.44799805,0.44848633,0.44873047,0.44921875,0.4494629,0.44995117,0.45043945,0.4506836,0.45092773,0.45166016,0.4519043,0.45239258,0.45288086,0.45361328,0.45385742,0.4543457,0.45458984,0.45532227,0.4555664,0.4560547,0.45654297,0.45703125,0.4572754,0.45776367,0.45825195,0.45874023,0.45922852,0.45947266,0.45996094,0.46044922,0.46069336,0.46118164,0.46142578,0.46191406,0.4621582,0.46264648,0.46313477,0.4633789,0.46362305,0.4638672,0.46435547,0.4645996,0.46484375,0.46557617,0.46606445,0.46679688,0.46728516,0.46801758,0.46850586,0.46899414,0.46948242,0.4699707,0.47021484,0.47070312,0.4711914,0.47143555,0.47192383,0.4724121,0.47265625,0.4729004,0.47314453,0.4736328,0.4741211,0.47460938,0.47485352,0.47509766,0.4753418,0.47583008,0.47607422,0.47631836,0.47631836,0.47631836,0.47558594,0.47583008,0.47509766,0.4741211,0.47265625,0.4699707,0.46923828,0.46923828,0.47265625,0.46899414,0.4645996,0.32470703,0.32373047,0.31860352,0.31591797,0.31274414,0.31201172,0.30981445,0.30908203,0.30786133,0.30664062,0.30541992,0.30395508,0.30249023,0.3010254,0.2993164,0.29736328,0.29589844,0.29467773,0.29345703,0.29223633,0.29125977,0.29101562,0.29101562,0.29003906,0.29003906,0.29125977,0.29492188,0.30004883,0.44921875,0.49731445,0.5,0.50341797,0.5083008,0.5058594,0.5053711,0.5058594,0.50634766,0.5073242,0.50878906,0.5097656,0.5097656,0.5102539,0.51171875,0.5126953,0.5131836,0.5136719,0.51416016,0.5151367,0.5151367,0.51660156,0.51660156,0.5175781,0.5180664,0.51904297,0.51953125,0.5205078,0.5209961,0.52197266,0.52246094,0.5234375,0.5239258,0.52490234,0.5258789,0.5263672,0.52685547,0.52734375,0.52783203,0.5288086,0.5292969,0.52978516,0.53027344,0.5307617,0.53125,0.5317383,0.53222656,0.53271484,0.5332031,0.5336914,0.5341797,0.53466797,0.53564453,0.5361328,0.5366211,0.5371094,0.53759766,0.5385742,0.5390625,0.5395508,0.54003906,0.5410156,0.5415039,0.5419922,0.54296875,0.54296875,0.5439453,0.5449219,0.5449219,0.54541016,0.54589844,0.546875,0.5473633,0.54785156,0.5488281,0.5493164,0.5498047,0.55029297,0.55078125,0.55078125,0.5517578,0.5517578,0.5527344,0.5527344,0.55322266,0.55371094,0.5546875,0.5551758,0.55566406,0.55566406,0.5566406,0.5566406,0.5576172,0.55810547,0.55859375,0.55908203,0.5595703,0.5605469,0.5600586,0.5629883
0.4326172,0.43359375,0.4333496,0.43408203,0.43530273,0.4345703,0.43530273,0.43530273,0.43603516,0.43579102,0.43579102,0.4362793,0.43676758,0.43676758,0.43701172,0.43725586,0.43774414,0.43798828,0.43823242,0.4387207,0.43896484,0.43920898,0.43969727,0.4399414,0.44018555,0.44067383,0.4411621,0.44140625,0.44189453,0.44213867,0.44262695,0.4428711,0.44335938,0.44384766,0.4440918,0.44433594,0.44482422,0.4453125,0.44555664,0.44580078,0.44628906,0.44677734,0.44726562,0.44750977,0.44799805,0.44848633,0.44873047,0.44921875,0.4494629,0.44995117,0.4501953,0.4506836,0.45117188,0.45166016,0.4519043,0.45214844,0.45263672,0.45336914,0.45385742,0.4543457,0.45458984,0.45532227,0.45581055,0.4560547,0.45629883,0.45703125,0.45751953,0.4580078,0.45825195,0.45874023,0.45947266,0.4597168,0.45996094,0.46044922,0.4609375,0.46118164,0.46142578,0.4621582,0.46240234,0.46289062,0.46313477,0.4633789,0.4638672,0.46411133,0.4645996,0.4650879,0.46557617,0.4663086,0.46679688,0.4675293,0.46801758,0.46875,0.46923828,0.46948242,0.4699707,0.47045898,0.47070312,0.4711914,0.47143555,0.47192383,0.4724121,0.47265625,0.4729004,0.47314453,0.47338867,0.4736328,0.47387695,0.47436523,0.47436523,0.47460938,0.47509766,0.4753418,0.4753418,0.47558594,0.4753418,0.47558594,0.47460938,0.47436523,0.47338867,0.47216797,0.46972656,0.46777344,0.46557617,0.46435547,0.46923828,0.46777344,0.4609375,0.4572754,0.32177734,0.31884766,0.31958008,0.3154297,0.31445312,0.31201172,0.31030273,0.3088379,0.3076172,0.3059082,0.3046875,0.30322266,0.3017578,0.30029297,0.2980957,0.29663086,0.29541016,0.29370117,0.29296875,0.2919922,0.29174805,0.29174805,0.29101562,0.2915039,0.29125977,0.29101562,0.2927246,0.29907227,0.46606445,0.5058594,0.50390625,0.5078125,0.51220703,0.5097656,0.5058594,0.5053711,0.50683594,0.50878906,0.50927734,0.5097656,0.5102539,0.5107422,0.51220703,0.5126953,0.5131836,0.5136719,0.51464844,0.5151367,0.515625,0.51660156,0.51708984,0.5180664,0.5185547,0.51953125,0.52001953,0.5205078,0.5214844,0.52246094,0.5234375,0.5239258,0.52441406,0.5253906,0.5258789,0.52685547,0.52685547,0.52783203,0.5283203,0.5288086,0.5292969,0.53027344,0.53027344,0.5307617,0.53125,0.53222656,0.53222656,0.5332031,0.5332031,0.5336914,0.53466797,0.53515625,0.53564453,0.5366211,0.5371094,0.53759766,0.53808594,0.5385742,0.5390625,0.54003906,0.54052734,0.5410156,0.5415039,0.54248047,0.54296875,0.5439453,0.5444336,0.5449219,0.54541016,0.54589844,0.546875,0.5473633,0.54785156,0.54833984,0.5493164,0.5498047,0.5498047,0.55078125,0.55078125,0.55126953,0.5517578,0.5527344,0.5527344,0.55322266,0.55371094,0.5546875,0.5546875,0.5551758,0.55615234,0.5566406,0.5571289,0.5576172,0.55810547,0.55859375,0.55859375,0.55908203,0.5605469,0.5595703,0.5625
0.4326172,0.43359375,0.4333496,0.43408203,0.4350586,0.4345703,0.43530273,0.43530273,0.4362793,0.43579102,0.43603516,0.4362793,0.43701172,0.43701172,0.43701172,0.4375,0.43774414,0.43774414,0.43823242,0.4387207,0.43896484,0.43920898,0.43969727,0.4399414,0.4404297,0.44067383,0.4411621,0.44140625,0.44189453,0.44213867,0.44262695,0.44311523,0.44335938,0.44360352,0.4440918,0.44433594,0.44482422,0.4453125,0.44555664,0.44580078,0.44628906,0.44677734,0.44702148,0.44750977,0.44799805,0.4482422,0.44873047,0.44921875,0.44921875,0.44970703,0.4501953,0.4506836,0.45092773,0.45141602,0.4519043,0.45239258,0.45263672,0.453125,0.45361328,0.45410156,0.45458984,0.45507812,0.4555664,0.45581055,0.45629883,0.45703125,0.45751953,0.45776367,0.45825195,0.45874023,0.45922852,0.4597168,0.45996094,0.46044922,0.4609375,0.46142578,0.46166992,0.4621582,0.46264648,0.46313477,0.46313477,0.4633789,0.46362305,0.4638672,0.46435547,0.4650879,0.46557617,0.46655273,0.46704102,0.46777344,0.46826172,0.46875,0.46923828,0.46972656,0.47021484,0.47045898,0.47070312,0.4711914,0.4711914,0.4716797,0.47216797,0.4724121,0.4724121,0.4729004,0.47314453,0.47338867,0.47338867,0.47387695,0.47436523,0.47436523,0.47485352,0.47509766,0.47509766,0.4753418,0.47558594,0.4753418,0.4741211,0.47387695,0.47265625,0.4711914,0.46923828,0.46704102,0.46533203,0.46289062,0.4645996,0.46411133,0.45996094,0.45825195,0.44433594,0.3203125,0.32348633,0.3173828,0.31640625,0.31347656,0.31152344,0.30981445,0.30859375,0.30639648,0.30541992,0.30395508,0.30249023,0.30126953,0.29956055,0.29785156,0.29614258,0.2944336,0.2932129,0.29223633,0.2919922,0.2915039,0.2902832,0.29052734,0.29052734,0.2902832,0.29174805,0.29516602,0.2998047,0.46728516,0.4970703,0.5004883,0.50927734,0.5097656,0.50634766,0.50634766,0.50634766,0.5073242,0.50878906,0.5083008,0.50927734,0.5097656,0.5107422,0.51171875,0.5126953,0.5131836,0.5136719,0.51416016,0.5151367,0.515625,0.5161133,0.51708984,0.5180664,0.5185547,0.51904297,0.52001953,0.5209961,0.5214844,0.52246094,0.5234375,0.5239258,0.52490234,0.5253906,0.5258789,0.5263672,0.52685547,0.52783203,0.5283203,0.5288086,0.5292969,0.52978516,0.53027344,0.53125,0.5317383,0.53222656,0.53271484,0.5332031,0.5336914,0.5341797,0.53466797,0.53564453,0.5361328,0.5371094,0.5371094,0.53808594,0.5385742,0.5390625,0.5395508,0.54003906,0.5410156,0.5415039,0.54248047,0.54296875,0.54345703,0.5439453,0.5449219,0.54541016,0.54589844,0.5463867,0.5473633,0.54785156,0.54833984,0.5488281,0.5498047,0.5498047,0.55029297,0.55078125,0.5517578,0.5517578,0.5522461,0.5527344,0.55322266,0.55371094,0.5541992,0.5546875,0.5551758,0.55566406,0.5566406,0.5571289,0.5576172,0.55810547,0.55859375,0.55859375,0.55908203,0.5605469,0.5595703,0.5625
0.43237305,0.4333496,0.4333496,0.43408203,0.43530273,0.4345703,0.4350586,0.4350586,0.43603516,0.43579102,0.43603516,0.4362793,0.43676758,0.43676758,0.43701172,0.4375,0.43774414,0.43774414,0.43798828,0.43847656,0.43896484,0.43920898,0.43945312,0.4399414,0.4404297,0.44067383,0.4411621,0.44140625,0.44189453,0.44213867,0.44262695,0.4428711,0.44311523,0.44360352,0.44384766,0.44433594,0.44482422,0.44506836,0.44555664,0.44580078,0.44628906,0.44677734,0.44702148,0.44750977,0.4477539,0.4482422,0.44873047,0.4489746,0.4494629,0.44970703,0.4501953,0.4506836,0.45092773,0.45141602,0.45166016,0.45214844,0.45288086,0.45336914,0.45361328,0.45410156,0.45458984,0.45507812,0.4555664,0.45581055,0.45629883,0.45703125,0.45751953,0.4580078,0.4584961,0.45874023,0.45922852,0.4597168,0.45996094,0.46044922,0.4609375,0.46142578,0.46166992,0.46240234,0.46264648,0.46289062,0.46313477,0.46313477,0.4633789,0.4638672,0.4645996,0.46557617,0.4663086,0.46704102,0.46777344,0.46801758,0.46850586,0.46875,0.46923828,0.4699707,0.47045898,0.47094727,0.47094727,0.47143555,0.4716797,0.4716797,0.4724121,0.47265625,0.47314453,0.47338867,0.4736328,0.4741211,0.47460938,0.47485352,0.47509766,0.47509766,0.4753418,0.47509766,0.47509766,0.4753418,0.47583008,0.47558594,0.47387695,0.4729004,0.4716797,0.46948242,0.46679688,0.46435547,0.4633789,0.45996094,0.4597168,0.45996094,0.45825195,0.45385742,0.44604492,0.42504883,0.32910156,0.32128906,0.3190918,0.31591797,0.31347656,0.31152344,0.30981445,0.30786133,0.30664062,0.3046875,0.30297852,0.30151367,0.2998047,0.29833984,0.29638672,0.29467773,0.29345703,0.29248047,0.2919922,0.2915039,0.29077148,0.29052734,0.2902832,0.29101562,0.29077148,0.2927246,0.29541016,0.30004883,0.47143555,0.50927734,0.50683594,0.5048828,0.5078125,0.5102539,0.5097656,0.5073242,0.50683594,0.5083008,0.50878906,0.5097656,0.5102539,0.5107422,0.51220703,0.5126953,0.5126953,0.5136719,0.51416016,0.51464844,0.515625,0.5161133,0.51708984,0.5175781,0.5185547,0.51904297,0.52001953,0.5205078,0.5214844,0.52246094,0.5229492,0.5239258,0.52490234,0.5253906,0.5258789,0.5263672,0.52685547,0.52734375,0.5283203,0.5288086,0.5292969,0.52978516,0.53027344,0.5307617,0.53125,0.53222656,0.53271484,0.5332031,0.5336914,0.53466797,0.53515625,0.53564453,0.5361328,0.5371094,0.53808594,0.5385742,0.5390625,0.5395508,0.54003906,0.5410156,0.5415039,0.54248047,0.54296875,0.54345703,0.5439453,0.5449219,0.54541016,0.54589844,0.5463867,0.5473633,0.54785156,0.54833984,0.5488281,0.5498047,0.5498047,0.55029297,0.55078125,0.55126953,0.5517578,0.5522461,0.5527344,0.55322266,0.55371094,0.5541992,0.5546875,0.5551758,0.55615234,0.5566406,0.5571289,0.5576172,0.5576172,0.55859375,0.55859375,0.55908203,0.5600586,0.55859375,0.56152344
0.4321289,0.4333496,0.43310547,0.43408203,0.43530273,0.43432617,0.4350586,0.4350586,0.43579102,0.43579102,0.43579102,0.43603516,0.43652344,0.43676758,0.43701172,0.43725586,0.43774414,0.43774414,0.43798828,0.43823242,0.4387207,0.43896484,0.43945312,0.4399414,0.44018555,0.4404297,0.44091797,0.4411621,0.4416504,0.44189453,0.4423828,0.4428711,0.44311523,0.44335938,0.44384766,0.4440918,0.44458008,0.44482422,0.4453125,0.44580078,0.44628906,0.4465332,0.44702148,0.44726562,0.4477539,0.4482422,0.44848633,0.4489746,0.44921875,0.44970703,0.4501953,0.45043945,0.45092773,0.45141602,0.45166016,0.45214844,0.45263672,0.453125,0.45361328,0.45410156,0.45458984,0.45507812,0.4555664,0.4560547,0.45629883,0.4567871,0.45751953,0.4580078,0.45825195,0.45874023,0.45922852,0.4597168,0.45996094,0.46069336,0.4609375,0.46142578,0.46191406,0.46240234,0.46264648,0.46289062,0.46289062,0.4633789,0.46362305,0.4645996,0.4650879,0.46606445,0.4663086,0.46728516,0.46801758,0.46850586,0.46850586,0.46875,0.46948242,0.4699707,0.47045898,0.47045898,0.47045898,0.47070312,0.47094727,0.47094727,0.47143555,0.47192383,0.4724121,0.47314453,0.4729004,0.4729004,0.4729004,0.4729004,0.47265625,0.47314453,0.47314453,0.4729004,0.47314453,0.47387695,0.47485352,0.47485352,0.47387695,0.47314453,0.4711914,0.46899414,0.46655273,0.4638672,0.46362305,0.46044922,0.45947266,0.4597168,0.4572754,0.46166992,0.453125,0.4189453,0.36132812,0.3293457,0.32299805,0.31958008,0.31689453,0.31445312,0.31201172,0.3095703,0.30810547,0.30639648,0.30419922,0.30249023,0.30078125,0.29882812,0.296875,0.29516602,0.2939453,0.29296875,0.29223633,0.2919922,0.29125977,0.29077148,0.2902832,0.29003906,0.29003906,0.29077148,0.2919922,0.29467773,0.3017578,0.45629883,0.49926758,0.5024414,0.5019531,0.5048828,0.5102539,0.51123047,0.5078125,0.5073242,0.5073242,0.50878906,0.5097656,0.5102539,0.5107422,0.51123047,0.51171875,0.5126953,0.5131836,0.5136719,0.51464844,0.5151367,0.5161133,0.51660156,0.5175781,0.5180664,0.51904297,0.52001953,0.5205078,0.5214844,0.52246094,0.5234375,0.5239258,0.52441406,0.52490234,0.5253906,0.5263672,0.5263672,0.52734375,0.52783203,0.5283203,0.5288086,0.52978516,0.53027344,0.5307617,0.53125,0.5317383,0.53271484,0.5332031,0.5341797,0.53466797,0.53564453,0.5361328,0.5371094,0.53759766,0.53808594,0.5385742,0.5395508,0.54003906,0.5410156,0.5415039,0.5419922,0.54296875,0.54345703,0.5439453,0.5449219,0.54541016,0.54589844,0.5463867,0.5473633,0.54785156,0.54833984,0.5488281,0.5493164,0.5498047,0.55078125,0.55078125,0.55126953,0.5517578,0.5522461,0.5527344,0.55322266,0.55371094,0.5541992,0.5546875,0.5551758,0.55566406,0.5566406,0.5571289,0.5576172,0.5576172,0.55859375,0.55859375,0.55908203,0.5600586,0.55859375,0.56103516
0.4321289,0.43310547,0.43310547,0.43408203,0.4350586,0.43432617,0.4350586,0.4350586,0.43579102,0.43554688,0.43579102,0.43603516,0.43676758,0.43676758,0.43701172,0.43725586,0.43774414,0.43774414,0.43798828,0.43823242,0.4387207,0.43896484,0.43945312,0.43969727,0.44018555,0.44067383,0.44091797,0.4411621,0.44140625,0.44189453,0.4423828,0.4428711,0.44311523,0.44360352,0.44384766,0.4440918,0.44458008,0.44506836,0.4453125,0.44580078,0.44628906,0.44677734,0.44702148,0.44726562,0.4477539,0.4482422,0.44848633,0.4489746,0.44921875,0.44970703,0.4501953,0.4506836,0.45092773,0.45117188,0.45166016,0.4519043,0.45263672,0.453125,0.45336914,0.45385742,0.45458984,0.45483398,0.4555664,0.4560547,0.45629883,0.45703125,0.45751953,0.4580078,0.4584961,0.45898438,0.45947266,0.4597168,0.46044922,0.4609375,0.46142578,0.46191406,0.4621582,0.46289062,0.46289062,0.46313477,0.46313477,0.46362305,0.4645996,0.4650879,0.46606445,0.46606445,0.46704102,0.46777344,0.46850586,0.46923828,0.46850586,0.46826172,0.46875,0.46923828,0.46948242,0.46923828,0.46899414,0.46923828,0.4699707,0.4699707,0.47094727,0.47192383,0.47338867,0.47436523,0.47485352,0.47558594,0.47607422,0.47631836,0.47680664,0.4777832,0.4777832,0.4777832,0.4777832,0.4790039,0.4794922,0.4790039,0.4777832,0.47705078,0.4736328,0.46948242,0.46704102,0.46484375,0.46606445,0.4633789,0.46264648,0.45898438,0.4609375,0.4597168,0.43603516,0.40649414,0.36083984,0.3347168,0.328125,0.3239746,0.32128906,0.31811523,0.3154297,0.31274414,0.3100586,0.30810547,0.30615234,0.30395508,0.30200195,0.30004883,0.29785156,0.29589844,0.2944336,0.29345703,0.29248047,0.2919922,0.29125977,0.2902832,0.2902832,0.29003906,0.28955078,0.29125977,0.29125977,0.29223633,0.2939453,0.29956055,0.42626953,0.5053711,0.4963379,0.5048828,0.5102539,0.51416016,0.51416016,0.5107422,0.5073242,0.5083008,0.50927734,0.50927734,0.5102539,0.5102539,0.5107422,0.51123047,0.51220703,0.5126953,0.5136719,0.51464844,0.515625,0.5161133,0.51708984,0.5175781,0.5185547,0.51904297,0.52001953,0.5209961,0.5214844,0.52246094,0.5229492,0.5239258,0.52441406,0.52490234,0.5253906,0.5258789,0.5263672,0.52685547,0.52734375,0.52783203,0.5288086,0.5292969,0.53027344,0.5307617,0.53125,0.5317383,0.5332031,0.5336914,0.53466797,0.53515625,0.53564453,0.5366211,0.5371094,0.53808594,0.5385742,0.5395508,0.54003906,0.54052734,0.5415039,0.5419922,0.54296875,0.54345703,0.5439453,0.5449219,0.5449219,0.54589844,0.5463867,0.546875,0.54785156,0.54833984,0.5493164,0.5498047,0.5498047,0.55078125,0.55078125,0.5517578,0.5517578,0.5522461,0.5527344,0.55322266,0.55371094,0.5541992,0.5546875,0.5551758,0.55615234,0.5566406,0.5566406,0.5576172,0.5576172,0.55859375,0.55859375,0.55908203,0.5595703,0.55859375,0.5605469
0.43188477,0.43310547,0.43310547,0.4338379,0.4350586,0.4345703,0.43481445,0.4350586,0.43579102,0.43579102,0.43579102,0.43603516,0.43676758,0.43676758,0.43676758,0.43725586,0.4375,0.43774414,0.43798828,0.43823242,0.4387207,0.43896484,0.43945312,0.43969727,0.44018555,0.4404297,0.44091797,0.4411621,0.4416504,0.44189453,0.44213867,0.44262695,0.44311523,0.44335938,0.44384766,0.4440918,0.44458008,0.44506836,0.4453125,0.44580078,0.44628906,0.4465332,0.44677734,0.44726562,0.4477539,0.4482422,0.44848633,0.44873047,0.44921875,0.44970703,0.4501953,0.45043945,0.45092773,0.45117188,0.45166016,0.45214844,0.45239258,0.45288086,0.45336914,0.45385742,0.45458984,0.45507812,0.4555664,0.4560547,0.45629883,0.4567871,0.45751953,0.4580078,0.4584961,0.45898438,0.45947266,0.46020508,0.46044922,0.4609375,0.46166992,0.4621582,0.46240234,0.46264648,0.46264648,0.46313477,0.46362305,0.4645996,0.46533203,0.46484375,0.46606445,0.46679688,0.46679688,0.4658203,0.46899414,0.46899414,0.46875,0.46923828,0.47021484,0.4711914,0.4716797,0.47192383,0.4711914,0.4711914,0.4711914,0.47045898,0.47045898,0.4716797,0.4729004,0.47338867,0.47387695,0.47509766,0.47460938,0.4729004,0.4724121,0.47021484,0.46948242,0.46801758,0.4675293,0.46899414,0.46826172,0.4675293,0.46826172,0.4658203,0.46191406,0.45898438,0.4555664,0.45385742,0.45361328,0.45239258,0.44873047,0.44677734,0.38989258,0.35009766,0.34570312,0.34179688,0.3347168,0.33203125,0.32885742,0.32666016,0.32470703,0.32202148,0.31884766,0.3161621,0.3125,0.31030273,0.3076172,0.30517578,0.30297852,0.30078125,0.29858398,0.29663086,0.29492188,0.29370117,0.2927246,0.29174805,0.29101562,0.29052734,0.29003906,0.28979492,0.28930664,0.2902832,0.29052734,0.29101562,0.29125977,0.2939453,0.29956055,0.31469727,0.49194336,0.4946289,0.5053711,0.5078125,0.5097656,0.5107422,0.5097656,0.5083008,0.5078125,0.5078125,0.5083008,0.50878906,0.50927734,0.5097656,0.5107422,0.51171875,0.51220703,0.5131836,0.51416016,0.5151367,0.5161133,0.51660156,0.5175781,0.5180664,0.51904297,0.52001953,0.5205078,0.5214844,0.52197266,0.5229492,0.5229492,0.5239258,0.52441406,0.52490234,0.5253906,0.5258789,0.5263672,0.52685547,0.52783203,0.5283203,0.5292969,0.52978516,0.5307617,0.53125,0.53222656,0.53271484,0.5336914,0.53466797,0.53564453,0.5361328,0.5371094,0.53759766,0.53808594,0.5390625,0.5395508,0.54052734,0.5415039,0.5419922,0.54296875,0.54345703,0.5439453,0.5444336,0.54541016,0.54589844,0.5463867,0.546875,0.5473633,0.54833984,0.5493164,0.5498047,0.55029297,0.55078125,0.55078125,0.55126953,0.5517578,0.5522461,0.5527344,0.55322266,0.55371094,0.5541992,0.5546875,0.55566406,0.55615234,0.5566406,0.5566406,0.5571289,0.5576172,0.55810547,0.55859375,0.55859375,0.55908203,0.55810547,0.5605469
0.43139648,0.43286133,0.43286133,0.4338379,0.43481445,0.43432617,0.43481445,0.43481445,0.43554688,0.43554688,0.43579102,0.43603516,0.43652344,0.43652344,0.43676758,0.43701172,0.43725586,0.4375,0.43798828,0.43823242,0.4387207,0.4387207,0.43920898,0.43969727,0.4399414,0.4404297,0.44067383,0.4411621,0.44140625,0.4416504,0.44213867,0.44262695,0.4428711,0.44311523,0.44360352,0.4440918,0.44433594,0.44482422,0.44506836,0.44555664,0.44604492,0.4465332,0.44702148,0.44726562,0.4477539,0.44799805,0.44848633,0.44873047,0.44921875,0.44970703,0.4501953,0.45043945,0.4506836,0.45117188,0.45166016,0.45214844,0.45239258,0.453125,0.45336914,0.45410156,0.45458984,0.45507812,0.4555664,0.4560547,0.45629883,0.45703125,0.45751953,0.4580078,0.4584961,0.45898438,0.4597168,0.46020508,0.46069336,0.46118164,0.46191406,0.46240234,0.46289062,0.46289062,0.46313477,0.4633789,0.4645996,0.4650879,0.4658203,0.4658203,0.46728516,0.4663086,0.46875,0.47094727,0.47387695,0.47485352,0.47436523,0.4724121,0.46948242,0.46875,0.46875,0.46826172,0.46606445,0.46533203,0.46484375,0.4633789,0.4621582,0.46289062,0.4638672,0.46313477,0.46289062,0.45947266,0.45629883,0.453125,0.4387207,0.43164062,0.4267578,0.41479492,0.38134766,0.3720703,0.36938477,0.36669922,0.3642578,0.3618164,0.36083984,0.36132812,0.35961914,0.35839844,0.35766602,0.35205078,0.33911133,0.33422852,0.33154297,0.33129883,0.3317871,0.3310547,0.33007812,0.32983398,0.3305664,0.32910156,0.32739258,0.3251953,0.32177734,0.3190918,0.3154297,0.31225586,0.30932617,0.30639648,0.30419922,0.30151367,0.2993164,0.29711914,0.29541016,0.29418945,0.2927246,0.29174805,0.29077148,0.2902832,0.28979492,0.28930664,0.2890625,0.28979492,0.29003906,0.29101562,0.29052734,0.2915039,0.2927246,0.29492188,0.3034668,0.48876953,0.50390625,0.5097656,0.50927734,0.50634766,0.51123047,0.51123047,0.5078125,0.50683594,0.5073242,0.5078125,0.5078125,0.5083008,0.50927734,0.5102539,0.51123047,0.51220703,0.5131836,0.51416016,0.5151367,0.515625,0.51660156,0.5175781,0.5185547,0.51904297,0.51953125,0.5205078,0.5209961,0.52197266,0.52197266,0.5229492,0.5234375,0.5239258,0.52441406,0.52490234,0.5253906,0.5258789,0.52685547,0.52734375,0.5283203,0.5288086,0.52978516,0.53027344,0.53125,0.53222656,0.5332031,0.5341797,0.53466797,0.5361328,0.5366211,0.53759766,0.53808594,0.5385742,0.5395508,0.54052734,0.5410156,0.5419922,0.54248047,0.54345703,0.5439453,0.5449219,0.54541016,0.54589844,0.5463867,0.5473633,0.54785156,0.54833984,0.5493164,0.5498047,0.55029297,0.55078125,0.55126953,0.5517578,0.5517578,0.5527344,0.5527344,0.55322266,0.55371094,0.5541992,0.5546875,0.55566406,0.55566406,0.55615234,0.5566406,0.5571289,0.5576172,0.55810547,0.55810547,0.55810547,0.55908203,0.5576172,0.5595703
0.43115234,0.43286133,0.4326172,0.4338379,0.43481445,0.43408203,0.43481445,0.43481445,0.43554688,0.43554688,0.43579102,0.43603516,0.43652344,0.43652344,0.43676758,0.43701172,0.43725586,0.4375,0.43774414,0.43798828,0.43847656,0.4387207,0.43896484,0.43969727,0.4399414,0.4404297,0.44067383,0.44091797,0.44140625,0.4416504,0.44213867,0.44262695,0.4428711,0.44335938,0.44360352,0.4440918,0.44458008,0.44482422,0.44506836,0.4453125,0.44580078,0.44628906,0.44677734,0.44726562,0.44750977,0.4477539,0.44848633,0.44873047,0.4489746,0.4494629,0.44995117,0.4501953,0.45043945,0.45092773,0.45141602,0.4519043,0.45239258,0.45288086,0.45361328,0.45410156,0.4543457,0.45507812,0.4555664,0.4560547,0.45629883,0.45703125,0.45751953,0.4580078,0.4584961,0.45922852,0.4597168,0.46044922,0.46069336,0.46142578,0.4621582,0.46264648,0.46313477,0.46313477,0.4633789,0.46411133,0.46557617,0.4658203,0.46704102,0.4658203,0.46435547,0.46362305,0.46264648,0.45874023,0.45629883,0.45483398,0.4494629,0.43725586,0.42895508,0.41210938,0.3857422,0.37158203,0.3684082,0.3684082,0.36889648,0.3630371,0.359375,0.35424805,0.34814453,0.34399414,0.34106445,0.3388672,0.33764648,0.3371582,0.33642578,0.33642578,0.33618164,0.33544922,0.33447266,0.33422852,0.3334961,0.33276367,0.3330078,0.3334961,0.33374023,0.33398438,0.33398438,0.3334961,0.33203125,0.33081055,0.32861328,0.32739258,0.328125,0.32910156,0.32983398,0.32983398,0.33007812,0.33032227,0.3305664,0.32983398,0.32788086,0.32592773,0.32299805,0.3203125,0.31640625,0.31347656,0.31030273,0.30737305,0.30493164,0.3022461,0.2998047,0.29760742,0.2956543,0.2944336,0.29296875,0.29174805,0.29101562,0.29003906,0.28955078,0.28930664,0.28881836,0.2890625,0.2890625,0.28955078,0.28930664,0.28930664,0.28881836,0.28955078,0.29223633,0.30151367,0.38989258,0.4897461,0.5004883,0.50097656,0.50097656,0.5073242,0.50634766,0.5058594,0.5058594,0.5058594,0.50634766,0.50683594,0.5078125,0.5083008,0.5097656,0.5107422,0.51220703,0.5131836,0.5136719,0.51464844,0.515625,0.5161133,0.51708984,0.5175781,0.5185547,0.51953125,0.51953125,0.5205078,0.5209961,0.5214844,0.52197266,0.52246094,0.5234375,0.5239258,0.52441406,0.52490234,0.5258789,0.5263672,0.52734375,0.52783203,0.5288086,0.52978516,0.5307617,0.5317383,0.53271484,0.5336914,0.5341797,0.53515625,0.5361328,0.5366211,0.53759766,0.5385742,0.5390625,0.54003906,0.5410156,0.5419922,0.54248047,0.54345703,0.5439453,0.5449219,0.54541016,0.54589844,0.5463867,0.5473633,0.54785156,0.5488281,0.5493164,0.5498047,0.55078125,0.55126953,0.55126953,0.5517578,0.5517578,0.5527344,0.5527344,0.55322266,0.55371094,0.5541992,0.5546875,0.5551758,0.55566406,0.55615234,0.5566406,0.5571289,0.5571289,0.55810547,0.55810547,0.55810547,0.55859375,0.5576172,0.55908203
0.43115234,0.4326172,0.4326172,0.43359375,0.43481445,0.43408203,0.43481445,0.43481445,0.43554688,0.43530273,0.43554688,0.43579102,0.4362793,0.43652344,0.43676758,0.43701172,0.43725586,0.4375,0.43774414,0.43798828,0.43847656,0.4387207,0.43920898,0.43969727,0.4399414,0.44018555,0.4404297,0.44091797,0.44140625,0.4416504,0.44213867,0.44262695,0.4428711,0.44311523,0.44360352,0.44384766,0.44433594,0.44482422,0.44506836,0.44555664,0.44580078,0.44628906,0.44677734,0.44726562,0.44750977,0.44799805,0.4482422,0.44848633,0.4489746,0.4494629,0.44995117,0.4501953,0.45043945,0.45092773,0.45141602,0.4519043,0.45214844,0.45288086,0.45361328,0.45410156,0.4543457,0.45483398,0.4555664,0.4560547,0.45654297,0.45703125,0.45776367,0.4580078,0.4584961,0.45922852,0.45996094,0.46044922,0.4609375,0.46166992,0.46264648,0.46289062,0.4633789,0.46362305,0.46411133,0.4650879,0.46606445,0.46655273,0.46728516,0.46655273,0.46484375,0.4699707,0.45458984,0.35107422,0.34448242,0.3395996,0.3371582,0.33520508,0.33447266,0.3334961,0.33276367,0.33251953,0.33203125,0.3317871,0.33154297,0.33154297,0.33129883,0.33032227,0.3305664,0.32983398,0.32983398,0.32983398,0.3293457,0.3293457,0.3293457,0.32958984,0.32983398,0.32983398,0.32983398,0.32958984,0.32958984,0.32910156,0.3293457,0.32958984,0.32983398,0.33032227,0.33032227,0.33007812,0.3293457,0.32836914,0.32861328,0.32763672,0.32861328,0.32861328,0.32885742,0.32861328,0.32910156,0.32958984,0.3293457,0.32958984,0.32788086,0.32617188,0.32348633,0.32080078,0.31762695,0.31445312,0.3112793,0.30786133,0.30541992,0.30249023,0.30029297,0.29785156,0.29614258,0.29467773,0.2932129,0.2919922,0.29101562,0.2902832,0.28955078,0.2890625,0.28857422,0.28881836,0.28857422,0.28881836,0.28857422,0.28930664,0.2890625,0.28955078,0.2878418,0.2915039,0.2939453,0.30078125,0.4885254,0.5048828,0.5048828,0.5048828,0.50878906,0.50878906,0.50634766,0.50439453,0.5053711,0.50634766,0.50683594,0.5078125,0.50878906,0.5097656,0.5107422,0.51220703,0.5126953,0.5136719,0.51464844,0.515625,0.5161133,0.51708984,0.5175781,0.5185547,0.5185547,0.51953125,0.52001953,0.5205078,0.5209961,0.52197266,0.52246094,0.5229492,0.5234375,0.5239258,0.52490234,0.5253906,0.5263672,0.52685547,0.52783203,0.5288086,0.52978516,0.5307617,0.53222656,0.53271484,0.5336914,0.53466797,0.53564453,0.5366211,0.53759766,0.53808594,0.5390625,0.54003906,0.5410156,0.5415039,0.54248047,0.54345703,0.5439453,0.5449219,0.54541016,0.54589844,0.5463867,0.5473633,0.54833984,0.5488281,0.5498047,0.55029297,0.55078125,0.55126953,0.55126953,0.5517578,0.5522461,0.5527344,0.5527344,0.55322266,0.55371094,0.5541992,0.5546875,0.5551758,0.55566406,0.55615234,0.55615234,0.5566406,0.5571289,0.5576172,0.5576172,0.55810547,0.55859375,0.5576172,0.55859375
0.43139648,0.4326172,0.4326172,0.43359375,0.4345703,0.4338379,0.4345703,0.4345703,0.43530273,0.43530273,0.43554688,0.43554688,0.4362793,0.4362793,0.43652344,0.43676758,0.43701172,0.43725586,0.4375,0.43798828,0.43823242,0.43847656,0.43896484,0.43945312,0.43969727,0.4399414,0.4404297,0.44067383,0.4411621,0.44140625,0.4416504,0.4423828,0.44262695,0.4428711,0.44335938,0.44384766,0.44433594,0.44458008,0.44506836,0.4453125,0.44580078,0.44628906,0.4465332,0.44702148,0.44750977,0.4477539,0.4482422,0.44848633,0.4489746,0.44921875,0.44970703,0.4501953,0.45043945,0.45092773,0.45141602,0.45166016,0.45214844,0.45288086,0.45361328,0.45410156,0.4543457,0.45507812,0.4555664,0.4560547,0.45654297,0.45703125,0.45751953,0.4580078,0.4584961,0.45922852,0.45996094,0.46044922,0.4609375,0.46166992,0.46264648,0.46289062,0.46362305,0.4638672,0.46484375,0.4658203,0.4663086,0.46606445,0.46533203,0.46264648,0.46044922,0.3857422,0.3359375,0.33203125,0.33081055,0.3293457,0.328125,0.32739258,0.32714844,0.3269043,0.32641602,0.32641602,0.32666016,0.32666016,0.32666016,0.3269043,0.32739258,0.32788086,0.328125,0.32836914,0.32885742,0.32910156,0.32958984,0.33007812,0.3305664,0.3305664,0.3310547,0.33129883,0.33129883,0.33154297,0.33154297,0.33129883,0.33129883,0.33129883,0.3317871,0.33251953,0.33251953,0.3322754,0.33154297,0.33007812,0.32958984,0.32885742,0.32910156,0.32910156,0.32910156,0.32910156,0.32910156,0.32958984,0.3293457,0.32958984,0.32836914,0.32641602,0.3239746,0.32104492,0.31811523,0.31469727,0.31152344,0.3083496,0.30541992,0.30297852,0.3005371,0.2980957,0.29638672,0.29492188,0.29345703,0.29223633,0.29125977,0.29052734,0.28979492,0.28881836,0.28833008,0.28808594,0.28833008,0.28833008,0.28808594,0.28808594,0.28857422,0.28881836,0.28857422,0.28881836,0.29003906,0.29370117,0.30126953,0.3828125,0.49804688,0.49438477,0.49682617,0.50439453,0.50390625,0.50390625,0.50341797,0.50439453,0.5053711,0.50634766,0.5073242,0.5083008,0.50927734,0.5102539,0.51171875,0.51220703,0.5136719,0.51416016,0.5151367,0.515625,0.5161133,0.51708984,0.51708984,0.5180664,0.5185547,0.51904297,0.52001953,0.5205078,0.5209961,0.5214844,0.52197266,0.5229492,0.5234375,0.52441406,0.5253906,0.5263672,0.52685547,0.52783203,0.5288086,0.53027344,0.53125,0.53222656,0.5332031,0.5341797,0.53515625,0.5361328,0.5371094,0.53759766,0.5385742,0.5395508,0.5410156,0.5419922,0.54248047,0.54345703,0.5439453,0.5444336,0.54541016,0.54589844,0.5463867,0.5473633,0.54833984,0.5493164,0.5498047,0.55029297,0.55078125,0.55126953,0.55126953,0.5517578,0.5522461,0.5527344,0.55322266,0.55322266,0.55371094,0.5541992,0.5546875,0.5551758,0.55566406,0.55615234,0.55615234,0.5566406,0.5571289,0.5576172,0.5576172,0.5576172,0.55859375,0.5576172,0.55908203
0.43115234,0.43237305,0.4326172,0.4333496,0.4345703,0.4338379,0.43432617,0.4345703,0.43530273,0.4350586,0.43530273,0.43554688,0.43603516,0.4362793,0.4362793,0.43652344,0.43701172,0.43725586,0.4375,0.43774414,0.43823242,0.43847656,0.4387207,0.43920898,0.43969727,0.4399414,0.4404297,0.44067383,0.4411621,0.44140625,0.4416504,0.44213867,0.44262695,0.4428711,0.44335938,0.44384766,0.44433594,0.44458008,0.44482422,0.4453125,0.44580078,0.44604492,0.44628906,0.44677734,0.44726562,0.4477539,0.44799805,0.44848633,0.4489746,0.44921875,0.44970703,0.4501953,0.45043945,0.45092773,0.45117188,0.45166016,0.45214844,0.45288086,0.45336914,0.45410156,0.4543457,0.45507812,0.4555664,0.45629883,0.45654297,0.45703125,0.45776367,0.4580078,0.4584961,0.45947266,0.45996094,0.46044922,0.4609375,0.46166992,0.46264648,0.46289062,0.4638672,0.4645996,0.46533203,0.4663086,0.4663086,0.4658203,0.4658203,0.45776367,0.4099121,0.3322754,0.33007812,0.32714844,0.32739258,0.32617188,0.32592773,0.32543945,0.3251953,0.32495117,0.32470703,0.32470703,0.32495117,0.3251953,0.3251953,0.32543945,0.32592773,0.32617188,0.32666016,0.3269043,0.32739258,0.32763672,0.32788086,0.32836914,0.32885742,0.3293457,0.32958984,0.32958984,0.32983398,0.32983398,0.33007812,0.32958984,0.32983398,0.32983398,0.33032227,0.33129883,0.33154297,0.33129883,0.33032227,0.32958984,0.32885742,0.32788086,0.328125,0.328125,0.32788086,0.32788086,0.32788086,0.32885742,0.32885742,0.32983398,0.32836914,0.32617188,0.32373047,0.32104492,0.31811523,0.31469727,0.31152344,0.30859375,0.30615234,0.30322266,0.3010254,0.29858398,0.296875,0.29516602,0.29370117,0.29223633,0.29125977,0.2902832,0.28955078,0.28857422,0.28808594,0.2878418,0.28759766,0.28759766,0.28735352,0.28710938,0.28710938,0.28759766,0.28759766,0.28881836,0.28857422,0.2890625,0.29174805,0.296875,0.30639648,0.50097656,0.49658203,0.5048828,0.5053711,0.5058594,0.50439453,0.5029297,0.50439453,0.5053711,0.5058594,0.5073242,0.5083008,0.50927734,0.5107422,0.51123047,0.51220703,0.5126953,0.5136719,0.51416016,0.51464844,0.515625,0.515625,0.51660156,0.51708984,0.5175781,0.51904297,0.51904297,0.52001953,0.52001953,0.5209961,0.5214844,0.52246094,0.5234375,0.52441406,0.5253906,0.5263672,0.52734375,0.5283203,0.5292969,0.53027344,0.5317383,0.53222656,0.5336914,0.53466797,0.53564453,0.5366211,0.5371094,0.53808594,0.5395508,0.54052734,0.5415039,0.54248047,0.54345703,0.5439453,0.5444336,0.54541016,0.54589844,0.546875,0.5473633,0.54833984,0.5493164,0.5498047,0.55029297,0.55078125,0.55126953,0.5517578,0.5517578,0.5522461,0.5527344,0.55322266,0.55322266,0.55371094,0.5541992,0.5546875,0.55566406,0.55566406,0.55615234,0.5566406,0.5566406,0.5571289,0.5576172,0.5576172,0.5576172,0.55859375,0.5571289,0.55859375
0.4309082,0.43237305,0.43237305,0.4333496,0.4345703,0.43359375,0.43432617,0.43432617,0.43530273,0.43481445,0.4350586,0.43554688,0.43603516,0.43603516,0.4362793,0.43676758,0.43701172,0.43725586,0.4375,0.43774414,0.43823242,0.4387207,0.43896484,0.43920898,0.43969727,0.4399414,0.4404297,0.44067383,0.4411621,0.44140625,0.44189453,0.44213867,0.44262695,0.4428711,0.44335938,0.44384766,0.4440918,0.44458008,0.44482422,0.4453125,0.44580078,0.44604492,0.4465332,0.44677734,0.44726562,0.4477539,0.44799805,0.44848633,0.44873047,0.44921875,0.44970703,0.44995117,0.45043945,0.45092773,0.45141602,0.45166016,0.45214844,0.45288086,0.45336914,0.45410156,0.45458984,0.45507812,0.4555664,0.4560547,0.45654297,0.45703125,0.45751953,0.4580078,0.4584961,0.45922852,0.45996094,0.46020508,0.46069336,0.46166992,0.46264648,0.46313477,0.46411133,0.4645996,0.46557617,0.46679688,0.46606445,0.46484375,0.4609375,0.43725586,0.3474121,0.33203125,0.3305664,0.32861328,0.32763672,0.32617188,0.3256836,0.32470703,0.32421875,0.32421875,0.32421875,0.3244629,0.3244629,0.3244629,0.32495117,0.3251953,0.32543945,0.32543945,0.32543945,0.32543945,0.32592773,0.32641602,0.32666016,0.32714844,0.32739258,0.32788086,0.328125,0.328125,0.32861328,0.32861328,0.32910156,0.32885742,0.32885742,0.32885742,0.32958984,0.33032227,0.3305664,0.3305664,0.32958984,0.32861328,0.32836914,0.32739258,0.32763672,0.32739258,0.32739258,0.32763672,0.328125,0.3293457,0.33007812,0.3305664,0.32861328,0.32641602,0.32348633,0.32128906,0.31811523,0.31518555,0.31225586,0.3088379,0.30639648,0.30371094,0.30126953,0.29882812,0.29711914,0.29541016,0.2939453,0.29248047,0.29125977,0.2902832,0.28930664,0.28857422,0.28808594,0.28759766,0.28735352,0.28710938,0.2866211,0.28637695,0.2861328,0.2861328,0.28564453,0.2861328,0.28686523,0.28735352,0.28833008,0.2919922,0.29589844,0.30566406,0.4975586,0.49365234,0.4975586,0.50341797,0.50341797,0.5029297,0.5029297,0.50390625,0.5048828,0.5058594,0.5073242,0.5083008,0.50927734,0.5097656,0.5107422,0.51171875,0.51220703,0.5126953,0.5131836,0.5136719,0.51464844,0.5151367,0.5161133,0.51660156,0.5175781,0.5180664,0.5185547,0.51904297,0.52001953,0.5205078,0.5214844,0.52197266,0.5234375,0.52441406,0.5253906,0.5263672,0.52734375,0.5288086,0.52978516,0.5307617,0.5317383,0.53271484,0.5336914,0.53515625,0.5361328,0.5371094,0.53808594,0.5390625,0.54003906,0.5410156,0.5419922,0.54296875,0.5439453,0.5449219,0.54541016,0.5463867,0.546875,0.5473633,0.54833984,0.5493164,0.5498047,0.55029297,0.55078125,0.55126953,0.5517578,0.5522461,0.5522461,0.5527344,0.5527344,0.55322266,0.55371094,0.5541992,0.5546875,0.5551758,0.55566406,0.55615234,0.55615234,0.5566406,0.5571289,0.5576172,0.5576172,0.55810547,0.55859375,0.5571289,0.55859375
0.43066406,0.4321289,0.4321289,0.43310547,0.43432617,0.43359375,0.43408203,0.43432617,0.4350586,0.43481445,0.4350586,0.43530273,0.43579102,0.43603516,0.4362793,0.43652344,0.43701172,0.43701172,0.43725586,0.43774414,0.43823242,0.43847656,0.43847656,0.43896484,0.43945312,0.4399414,0.4404297,0.44067383,0.44091797,0.44140625,0.44189453,0.44213867,0.4423828,0.4428711,0.44311523,0.44360352,0.4440918,0.44458008,0.44482422,0.4453125,0.44555664,0.44580078,0.44628906,0.44677734,0.44726562,0.4477539,0.44799805,0.4482422,0.44873047,0.44921875,0.4494629,0.44995117,0.45043945,0.45092773,0.45141602,0.45166016,0.45214844,0.45288086,0.45361328,0.45410156,0.4543457,0.45507812,0.4555664,0.4560547,0.45654297,0.45703125,0.45776367,0.45825195,0.45874023,0.45922852,0.45996094,0.46020508,0.46069336,0.46142578,0.46264648,0.46313477,0.46411133,0.46484375,0.46606445,0.46704102,0.46557617,0.46533203,0.45751953,0.37939453,0.34350586,0.33398438,0.33129883,0.32861328,0.32763672,0.32592773,0.3251953,0.32470703,0.3244629,0.32470703,0.32470703,0.32495117,0.32543945,0.32543945,0.3256836,0.32592773,0.32617188,0.32641602,0.32641602,0.32666016,0.32666016,0.32714844,0.32763672,0.328125,0.32836914,0.32861328,0.32910156,0.3293457,0.32958984,0.32983398,0.33007812,0.32983398,0.32983398,0.33032227,0.33081055,0.3317871,0.33129883,0.3317871,0.3305664,0.32958984,0.3293457,0.328125,0.328125,0.328125,0.32836914,0.32836914,0.32910156,0.3305664,0.33081055,0.33129883,0.32885742,0.32617188,0.32373047,0.32080078,0.31811523,0.31518555,0.3125,0.3095703,0.30664062,0.30395508,0.30151367,0.29907227,0.29736328,0.2956543,0.2939453,0.2927246,0.29174805,0.29052734,0.28979492,0.28881836,0.28808594,0.28735352,0.28710938,0.2866211,0.28637695,0.2861328,0.28588867,0.2861328,0.28588867,0.2861328,0.28637695,0.28759766,0.28759766,0.2902832,0.2932129,0.29638672,0.31933594,0.50341797,0.50146484,0.50439453,0.5053711,0.50439453,0.5024414,0.5024414,0.50390625,0.5053711,0.5058594,0.5073242,0.5083008,0.50927734,0.5097656,0.5107422,0.51123047,0.51171875,0.5126953,0.5126953,0.5136719,0.51416016,0.51464844,0.515625,0.51660156,0.51660156,0.5175781,0.5175781,0.5185547,0.51953125,0.5205078,0.5209961,0.52246094,0.5234375,0.52490234,0.5258789,0.52685547,0.52783203,0.5292969,0.53027344,0.5307617,0.53222656,0.5336914,0.53466797,0.53564453,0.5366211,0.53808594,0.5390625,0.54003906,0.5410156,0.5419922,0.54296875,0.5439453,0.5449219,0.54541016,0.5463867,0.5473633,0.54785156,0.5488281,0.5493164,0.5498047,0.55029297,0.55078125,0.5517578,0.5517578,0.5522461,0.5522461,0.5527344,0.55322266,0.55371094,0.5541992,0.5546875,0.5551758,0.55566406,0.55566406,0.55615234,0.55615234,0.5571289,0.5571289,0.5576172,0.5576172,0.55810547,0.55859375,0.5571289,0.55859375
0.43066406,0.43188477,0.43188477,0.43286133,0.43408203,0.4333496,0.4338379,0.43408203,0.43481445,0.43481445,0.4350586,0.4350586,0.43579102,0.43579102,0.43603516,0.4362793,0.43676758,0.43676758,0.43701172,0.4375,0.43798828,0.43823242,0.43847656,0.43896484,0.43920898,0.43969727,0.44018555,0.4404297,0.44067383,0.4411621,0.4416504,0.44189453,0.44213867,0.44262695,0.44311523,0.44335938,0.44384766,0.44433594,0.44458008,0.44506836,0.4453125,0.44580078,0.44628906,0.44677734,0.44702148,0.44750977,0.44799805,0.4482422,0.44873047,0.44921875,0.4494629,0.44995117,0.4501953,0.45092773,0.45117188,0.45166016,0.45214844,0.45288086,0.45336914,0.45385742,0.4543457,0.45507812,0.4555664,0.4560547,0.45654297,0.45703125,0.45776367,0.45825195,0.4584961,0.45922852,0.4597168,0.45996094,0.46020508,0.46118164,0.4621582,0.46264648,0.4638672,0.46484375,0.4658203,0.46655273,0.4645996,0.46533203,0.45654297,0.36889648,0.3425293,0.3334961,0.3305664,0.32788086,0.32641602,0.3251953,0.3244629,0.32421875,0.3239746,0.32421875,0.3244629,0.3244629,0.32495117,0.3251953,0.32543945,0.3256836,0.32617188,0.32641602,0.32641602,0.32666016,0.3269043,0.32739258,0.32788086,0.32836914,0.32861328,0.32910156,0.3293457,0.32958984,0.33007812,0.33007812,0.33032227,0.33032227,0.3305664,0.33129883,0.3317871,0.33251953,0.33251953,0.33251953,0.33203125,0.3305664,0.33032227,0.3293457,0.3293457,0.32910156,0.3293457,0.32958984,0.33007812,0.33129883,0.33129883,0.33154297,0.32910156,0.32641602,0.3239746,0.32104492,0.31835938,0.3154297,0.3125,0.30981445,0.30688477,0.30419922,0.3017578,0.2993164,0.29760742,0.29589844,0.29418945,0.29296875,0.29174805,0.29077148,0.28979492,0.28881836,0.2878418,0.28710938,0.2866211,0.2861328,0.28588867,0.28564453,0.28564453,0.28588867,0.28588867,0.28564453,0.2861328,0.28637695,0.28686523,0.28857422,0.29052734,0.2919922,0.296875,0.44677734,0.4987793,0.49853516,0.49804688,0.5024414,0.50341797,0.5024414,0.5024414,0.50390625,0.5053711,0.50634766,0.5073242,0.5083008,0.50878906,0.50927734,0.5097656,0.5097656,0.5102539,0.51123047,0.51171875,0.5126953,0.5131836,0.51416016,0.51464844,0.5151367,0.515625,0.5161133,0.5175781,0.5180664,0.51953125,0.52001953,0.5214844,0.52246094,0.5239258,0.52490234,0.5258789,0.52734375,0.5288086,0.5292969,0.53027344,0.53125,0.53271484,0.5341797,0.53564453,0.5366211,0.53759766,0.5390625,0.54003906,0.5410156,0.5419922,0.54296875,0.5439453,0.5449219,0.54589844,0.5463867,0.546875,0.54785156,0.54833984,0.5493164,0.5498047,0.55029297,0.55078125,0.5517578,0.5517578,0.5522461,0.5522461,0.55322266,0.55322266,0.55371094,0.5541992,0.5546875,0.5551758,0.55566406,0.55615234,0.5566406,0.55615234,0.5566406,0.5571289,0.5576172,0.5576172,0.55810547,0.55908203,0.5571289,0.55859375
0.43041992,0.43164062,0.43164062,0.4326172,0.43408203,0.4333496,0.4338379,0.4338379,0.4345703,0.4345703,0.4350586,0.4350586,0.43554688,0.43579102,0.43603516,0.4362793,0.43652344,0.43676758,0.43701172,0.4375,0.43798828,0.43823242,0.43847656,0.43896484,0.43945312,0.43969727,0.4399414,0.4404297,0.44067383,0.4411621,0.44140625,0.44189453,0.44213867,0.44262695,0.44311523,0.44360352,0.44384766,0.44433594,0.44458008,0.44506836,0.4453125,0.44580078,0.44628906,0.44677734,0.44702148,0.44750977,0.4477539,0.4482422,0.44873047,0.4489746,0.4494629,0.44995117,0.4501953,0.4506836,0.45117188,0.45166016,0.4519043,0.45263672,0.453125,0.45385742,0.4543457,0.45507812,0.4555664,0.4560547,0.45629883,0.45703125,0.45751953,0.4580078,0.45825195,0.45898438,0.4597168,0.45996094,0.46020508,0.4609375,0.46191406,0.46264648,0.46362305,0.4645996,0.46557617,0.4658203,0.46435547,0.46704102,0.4584961,0.3642578,0.34375,0.33374023,0.32983398,0.32666016,0.32543945,0.3244629,0.32421875,0.32421875,0.32421875,0.3244629,0.3244629,0.32470703,0.32495117,0.32543945,0.3256836,0.32592773,0.32617188,0.32641602,0.32666016,0.3269043,0.32739258,0.32763672,0.328125,0.32885742,0.32885742,0.3293457,0.32983398,0.32983398,0.33007812,0.33032227,0.33081055,0.33129883,0.33129883,0.3317871,0.33251953,0.33325195,0.33374023,0.33325195,0.33276367,0.33129883,0.33081055,0.33032227,0.33007812,0.33032227,0.32983398,0.3310547,0.33129883,0.33203125,0.33203125,0.33154297,0.32910156,0.32666016,0.3239746,0.32128906,0.31860352,0.31567383,0.31274414,0.3100586,0.30737305,0.3046875,0.3022461,0.29956055,0.29760742,0.29589844,0.2944336,0.29296875,0.29174805,0.29077148,0.28979492,0.28881836,0.2878418,0.28710938,0.28637695,0.28588867,0.2854004,0.28515625,0.2849121,0.2849121,0.28515625,0.2849121,0.2854004,0.28588867,0.2861328,0.2878418,0.28881836,0.28979492,0.2915039,0.2956543,0.49609375,0.5048828,0.5048828,0.50097656,0.50439453,0.5053711,0.50390625,0.5053711,0.5058594,0.50634766,0.50634766,0.5073242,0.50683594,0.5073242,0.5073242,0.5078125,0.5083008,0.50927734,0.5097656,0.51123047,0.51171875,0.5126953,0.5136719,0.51416016,0.51464844,0.5151367,0.5161133,0.51660156,0.5185547,0.51904297,0.5205078,0.5209961,0.52246094,0.5234375,0.52490234,0.5258789,0.52734375,0.5288086,0.52978516,0.5307617,0.53222656,0.5336914,0.53515625,0.5361328,0.53759766,0.5385742,0.5395508,0.5410156,0.5415039,0.54296875,0.5439453,0.5449219,0.54541016,0.5463867,0.546875,0.54785156,0.5488281,0.5493164,0.5498047,0.55029297,0.55078125,0.5517578,0.5517578,0.5522461,0.5527344,0.55322266,0.55322266,0.55371094,0.5541992,0.5546875,0.5551758,0.55566406,0.55615234,0.55615234,0.55615234,0.5571289,0.5576172,0.55810547,0.5576172,0.55810547,0.55908203,0.5576172,0.55859375
0.42993164,0.43164062,0.43139648,0.4326172,0.4338379,0.43310547,0.43359375,0.4338379,0.4345703,0.43432617,0.43481445,0.4350586,0.43554688,0.43554688,0.43579102,0.4362793,0.43652344,0.43676758,0.43701172,0.4375,0.43774414,0.43823242,0.43847656,0.43896484,0.43920898,0.43969727,0.4399414,0.44018555,0.44067383,0.4411621,0.44140625,0.4416504,0.44213867,0.44262695,0.44311523,0.44335938,0.44384766,0.44433594,0.44458008,0.44506836,0.44555664,0.44580078,0.44628906,0.44677734,0.44702148,0.44750977,0.4477539,0.4482422,0.44848633,0.4489746,0.4494629,0.44995117,0.4501953,0.4506836,0.45117188,0.45141602,0.4519043,0.45263672,0.45336914,0.45385742,0.45410156,0.45483398,0.4555664,0.45581055,0.45629883,0.45703125,0.45776367,0.4580078,0.45825195,0.45898438,0.45947266,0.45996094,0.46020508,0.4609375,0.46166992,0.46240234,0.46362305,0.46411133,0.46484375,0.46484375,0.4633789,0.46484375,0.4609375,0.41796875,0.34716797,0.33374023,0.32910156,0.3256836,0.32495117,0.3244629,0.32373047,0.32373047,0.3239746,0.3239746,0.32421875,0.3244629,0.3251953,0.3256836,0.32592773,0.32592773,0.32617188,0.32617188,0.32641602,0.32666016,0.3269043,0.32739258,0.32788086,0.32861328,0.32885742,0.32958984,0.32958984,0.33007812,0.33032227,0.33081055,0.33154297,0.3317871,0.3322754,0.3330078,0.33374023,0.3347168,0.33496094,0.33496094,0.33398438,0.3322754,0.33203125,0.33129883,0.33154297,0.3317871,0.3317871,0.33251953,0.33276367,0.33276367,0.33276367,0.33203125,0.3293457,0.3269043,0.32421875,0.3215332,0.3190918,0.31640625,0.31323242,0.31054688,0.3076172,0.30493164,0.30249023,0.2998047,0.29785156,0.29614258,0.29467773,0.29345703,0.29223633,0.29101562,0.28979492,0.28881836,0.28808594,0.28710938,0.2866211,0.28588867,0.2854004,0.2849121,0.28466797,0.28442383,0.28442383,0.28442383,0.2849121,0.2854004,0.2854004,0.2866211,0.28735352,0.28808594,0.28955078,0.29101562,0.29833984,0.49975586,0.49780273,0.49780273,0.49804688,0.5024414,0.50341797,0.5053711,0.50439453,0.50439453,0.50439453,0.5053711,0.5058594,0.5053711,0.5053711,0.50634766,0.5078125,0.5083008,0.50927734,0.5097656,0.51123047,0.51171875,0.5126953,0.5126953,0.5131836,0.5136719,0.51464844,0.515625,0.51708984,0.5185547,0.51953125,0.52001953,0.5214844,0.52197266,0.5239258,0.52490234,0.5263672,0.52783203,0.5288086,0.53027344,0.5317383,0.5336914,0.53466797,0.53564453,0.5371094,0.53808594,0.5395508,0.54052734,0.5415039,0.54248047,0.5439453,0.5449219,0.54541016,0.5463867,0.546875,0.54785156,0.54833984,0.5493164,0.5498047,0.55029297,0.55078125,0.5517578,0.5517578,0.5522461,0.5527344,0.55322266,0.55322266,0.55371094,0.5541992,0.5546875,0.5551758,0.55566406,0.55615234,0.5566406,0.5566406,0.5576172,0.5576172,0.55859375,0.55810547,0.55859375,0.5595703,0.55810547,0.5595703
0.4296875,0.43139648,0.43139648,0.43237305,0.43359375,0.43286133,0.4333496,0.43359375,0.43432617,0.43432617,0.4345703,0.43481445,0.43530273,0.43554688,0.43579102,0.43603516,0.43652344,0.43652344,0.43676758,0.43725586,0.43774414,0.43798828,0.43823242,0.4387207,0.43920898,0.43945312,0.43969727,0.44018555,0.44067383,0.44091797,0.4411621,0.4416504,0.44213867,0.44262695,0.4428711,0.44335938,0.44360352,0.4440918,0.44458008,0.44482422,0.4453125,0.44580078,0.44628906,0.4465332,0.44702148,0.44750977,0.4477539,0.4482422,0.44848633,0.4489746,0.4494629,0.44970703,0.4501953,0.4506836,0.45092773,0.45141602,0.4519043,0.45263672,0.453125,0.45361328,0.45410156,0.45507812,0.45532227,0.45581055,0.45629883,0.4572754,0.45776367,0.4580078,0.45825195,0.45898438,0.45947266,0.4597168,0.46020508,0.46069336,0.46166992,0.46240234,0.46313477,0.46362305,0.46411133,0.4638672,0.46240234,0.46240234,0.4609375,0.44506836,0.35864258,0.33398438,0.32885742,0.3251953,0.32470703,0.32421875,0.32373047,0.3239746,0.3239746,0.3244629,0.32421875,0.32470703,0.32543945,0.3256836,0.32617188,0.32641602,0.3269043,0.3269043,0.32714844,0.32714844,0.32763672,0.328125,0.32885742,0.32910156,0.32958984,0.32983398,0.33007812,0.33032227,0.3310547,0.3317871,0.33251953,0.3330078,0.3334961,0.33398438,0.33520508,0.3359375,0.33666992,0.33691406,0.33618164,0.33374023,0.3334961,0.3330078,0.33325195,0.33374023,0.3334961,0.33398438,0.33398438,0.33374023,0.33325195,0.3322754,0.32958984,0.32714844,0.32495117,0.32202148,0.31958008,0.31689453,0.31396484,0.31103516,0.30810547,0.30517578,0.30273438,0.30029297,0.29833984,0.29663086,0.29492188,0.29370117,0.29248047,0.29125977,0.29003906,0.2890625,0.28808594,0.28735352,0.2866211,0.28588867,0.28515625,0.2849121,0.28466797,0.2841797,0.2841797,0.2841797,0.28442383,0.28515625,0.28515625,0.28637695,0.2866211,0.2878418,0.28833008,0.29003906,0.29125977,0.30078125,0.49487305,0.50097656,0.5019531,0.5019531,0.5048828,0.5053711,0.5058594,0.50634766,0.50683594,0.50683594,0.50683594,0.50634766,0.5048828,0.50634766,0.5073242,0.5078125,0.5083008,0.50927734,0.5097656,0.5102539,0.5107422,0.51123047,0.51123047,0.51220703,0.5136719,0.51464844,0.5161133,0.5175781,0.5185547,0.51953125,0.5209961,0.52197266,0.5239258,0.52490234,0.5263672,0.52734375,0.5288086,0.52978516,0.5317383,0.5332031,0.53466797,0.53564453,0.5371094,0.53808594,0.5395508,0.54052734,0.5415039,0.54248047,0.5439453,0.5449219,0.54541016,0.5463867,0.546875,0.5473633,0.54833984,0.5493164,0.5498047,0.55029297,0.55078125,0.5517578,0.5517578,0.5522461,0.5527344,0.5527344,0.55322266,0.55371094,0.5541992,0.5551758,0.5551758,0.55566406,0.55615234,0.5571289,0.5571289,0.5576172,0.5576172,0.55859375,0.55810547,0.55908203,0.5600586,0.55810547,0.5605469
0.42944336,0.43139648,0.43115234,0.43237305,0.4333496,0.43286133,0.4333496,0.43359375,0.43432617,0.43408203,0.4345703,0.4345703,0.43530273,0.43530273,0.43554688,0.43603516,0.4362793,0.43652344,0.43701172,0.4375,0.43774414,0.43798828,0.43847656,0.4387207,0.43896484,0.43945312,0.4399414,0.44018555,0.44067383,0.44091797,0.44140625,0.4416504,0.44213867,0.44262695,0.4428711,0.44335938,0.44360352,0.4440918,0.44433594,0.44482422,0.4453125,0.44580078,0.44628906,0.4465332,0.44726562,0.44750977,0.4477539,0.44799805,0.44848633,0.4489746,0.44921875,0.44970703,0.4501953,0.4506836,0.45092773,0.45141602,0.4519043,0.45263672,0.45336914,0.45361328,0.45410156,0.45483398,0.45532227,0.45581055,0.45629883,0.45703125,0.45751953,0.45776367,0.4580078,0.45874023,0.45922852,0.4597168,0.45996094,0.46044922,0.46118164,0.46166992,0.46264648,0.46313477,0.4633789,0.4633789,0.4621582,0.46166992,0.4609375,0.44360352,0.3791504,0.33569336,0.32763672,0.32470703,0.3244629,0.32421875,0.32373047,0.3239746,0.32421875,0.3244629,0.32470703,0.32543945,0.32592773,0.32641602,0.32666016,0.32666016,0.3269043,0.32714844,0.32763672,0.328125,0.32861328,0.32910156,0.33007812,0.3305664,0.33129883,0.33154297,0.3317871,0.3322754,0.33276367,0.33374023,0.33422852,0.3347168,0.33520508,0.33569336,0.33691406,0.33789062,0.33862305,0.33911133,0.33691406,0.33520508,0.33496094,0.3347168,0.33496094,0.33520508,0.3347168,0.33496094,0.33520508,0.33447266,0.33398438,0.33276367,0.33007812,0.32763672,0.32543945,0.32250977,0.32006836,0.3173828,0.31445312,0.3112793,0.30859375,0.30566406,0.30322266,0.3005371,0.29858398,0.29663086,0.29516602,0.29370117,0.29248047,0.2915039,0.2902832,0.2890625,0.28808594,0.28710938,0.28637695,0.28588867,0.28515625,0.28442383,0.2841797,0.2836914,0.2836914,0.2836914,0.28393555,0.28466797,0.2849121,0.2854004,0.28588867,0.28637695,0.28686523,0.28759766,0.28735352,0.28955078,0.29785156,0.47753906,0.50097656,0.5048828,0.5029297,0.49804688,0.4970703,0.4975586,0.49853516,0.5,0.50097656,0.5019531,0.50341797,0.5058594,0.5078125,0.5078125,0.5073242,0.5083008,0.5078125,0.50927734,0.50927734,0.50927734,0.5102539,0.51123047,0.5126953,0.5136719,0.5151367,0.5161133,0.5180664,0.5185547,0.52001953,0.5214844,0.5229492,0.52441406,0.5258789,0.52685547,0.52783203,0.5292969,0.53125,0.53271484,0.5341797,0.53564453,0.5366211,0.53808594,0.5390625,0.54052734,0.5415039,0.54248047,0.54345703,0.5444336,0.54541016,0.5463867,0.546875,0.5473633,0.54833984,0.5493164,0.5498047,0.55029297,0.55078125,0.55126953,0.5517578,0.5522461,0.5522461,0.5527344,0.55322266,0.55371094,0.5546875,0.5551758,0.55566406,0.55615234,0.5571289,0.5571289,0.5571289,0.5576172,0.55810547,0.55859375,0.55859375,0.55908203,0.5605469,0.55859375,0.56103516
0.42944336,0.43115234,0.4309082,0.43188477,0.43310547,0.4326172,0.43310547,0.4333496,0.43432617,0.43408203,0.43432617,0.4345703,0.4350586,0.43530273,0.43554688,0.43579102,0.4362793,0.43652344,0.43676758,0.43725586,0.4375,0.43798828,0.43823242,0.43847656,0.43896484,0.43945312,0.43969727,0.44018555,0.4404297,0.44091797,0.4411621,0.4416504,0.44189453,0.4423828,0.44262695,0.44311523,0.44360352,0.4440918,0.44433594,0.44482422,0.4453125,0.44580078,0.44604492,0.4465332,0.44702148,0.44726562,0.4477539,0.44799805,0.44848633,0.44873047,0.4494629,0.44970703,0.44995117,0.45043945,0.45092773,0.45141602,0.4519043,0.45263672,0.453125,0.45361328,0.45410156,0.45458984,0.45532227,0.4555664,0.4560547,0.4567871,0.4572754,0.45751953,0.4580078,0.45874023,0.45922852,0.4597168,0.45996094,0.46020508,0.46069336,0.46142578,0.4621582,0.46289062,0.46289062,0.46313477,0.46166992,0.45947266,0.45458984,0.44262695,0.42041016,0.33544922,0.32592773,0.32299805,0.3232422,0.32299805,0.3232422,0.3232422,0.3232422,0.32348633,0.32373047,0.32421875,0.32470703,0.3251953,0.32592773,0.32617188,0.32666016,0.3269043,0.32739258,0.328125,0.32885742,0.32958984,0.3305664,0.33129883,0.3322754,0.33251953,0.3330078,0.33398438,0.33422852,0.33544922,0.33569336,0.3359375,0.33642578,0.33691406,0.33813477,0.33911133,0.34033203,0.3395996,0.33764648,0.33618164,0.3359375,0.33569336,0.33618164,0.33618164,0.33569336,0.3359375,0.33569336,0.33496094,0.33374023,0.33251953,0.33007812,0.32788086,0.3256836,0.3227539,0.3203125,0.31762695,0.3149414,0.31201172,0.30908203,0.30615234,0.3034668,0.30078125,0.29882812,0.29711914,0.29541016,0.2939453,0.29296875,0.29174805,0.29052734,0.28955078,0.28833008,0.28735352,0.28637695,0.28564453,0.28515625,0.28442383,0.28393555,0.2836914,0.28344727,0.28344727,0.28393555,0.2841797,0.28466797,0.2849121,0.28515625,0.28564453,0.28564453,0.28710938,0.2861328,0.28710938,0.28735352,0.29052734,0.29785156,0.48632812,0.50146484,0.5,0.4975586,0.49902344,0.49902344,0.5,0.50097656,0.50439453,0.50439453,0.50634766,0.50683594,0.50634766,0.5073242,0.5053711,0.5078125,0.5097656,0.5097656,0.5097656,0.5107422,0.51171875,0.51220703,0.51464844,0.5161133,0.51660156,0.515625,0.51708984,0.5185547,0.5205078,0.52197266,0.5239258,0.52490234,0.5263672,0.52783203,0.5292969,0.53125,0.53271484,0.5341797,0.53515625,0.5366211,0.53759766,0.5390625,0.54052734,0.5415039,0.54248047,0.54345703,0.5444336,0.54541016,0.5463867,0.546875,0.54785156,0.54833984,0.5488281,0.5493164,0.55029297,0.55078125,0.55126953,0.5517578,0.5522461,0.5522461,0.5527344,0.55322266,0.5541992,0.5546875,0.5551758,0.55615234,0.5566406,0.5571289,0.5571289,0.5576172,0.55810547,0.55859375,0.55908203,0.55859375,0.5595703,0.56103516,0.5595703,0.56152344
0.42895508,0.4309082,0.43066406,0.43188477,0.43310547,0.43237305,0.43286133,0.4333496,0.43408203,0.4338379,0.43432617,0.4345703,0.4350586,0.4350586,0.43530273,0.43554688,0.43603516,0.4362793,0.43676758,0.43701172,0.4375,0.43774414,0.43798828,0.43847656,0.43896484,0.43920898,0.43945312,0.43969727,0.44018555,0.44067383,0.4411621,0.44140625,0.44189453,0.4423828,0.4423828,0.4428711,0.44360352,0.4440918,0.44433594,0.44482422,0.4453125,0.44555664,0.44604492,0.4465332,0.44702148,0.44726562,0.4477539,0.44799805,0.44848633,0.44873047,0.44921875,0.44970703,0.44995117,0.45043945,0.45092773,0.45141602,0.4519043,0.45263672,0.453125,0.45361328,0.45385742,0.45458984,0.45507812,0.4555664,0.4560547,0.4567871,0.4572754,0.45776367,0.4580078,0.45874023,0.45947266,0.4597168,0.45996094,0.46020508,0.46069336,0.4609375,0.46191406,0.46264648,0.46289062,0.46264648,0.46069336,0.4567871,0.44873047,0.44140625,0.41796875,0.33422852,0.3244629,0.32177734,0.32177734,0.32202148,0.32250977,0.32250977,0.32250977,0.3227539,0.3232422,0.3239746,0.3244629,0.32470703,0.3251953,0.32543945,0.32592773,0.32714844,0.32763672,0.32836914,0.32885742,0.32958984,0.3305664,0.3310547,0.3317871,0.33203125,0.3322754,0.33325195,0.3334961,0.33447266,0.33520508,0.33569336,0.3359375,0.33642578,0.3371582,0.33813477,0.3388672,0.33935547,0.33789062,0.33642578,0.33642578,0.33618164,0.33618164,0.33642578,0.3359375,0.33618164,0.3359375,0.33496094,0.33374023,0.33251953,0.3305664,0.32836914,0.32617188,0.3232422,0.32080078,0.3178711,0.3154297,0.3125,0.30932617,0.30639648,0.30371094,0.30126953,0.29907227,0.29736328,0.2956543,0.2944336,0.2932129,0.2919922,0.29077148,0.28955078,0.28857422,0.28759766,0.28686523,0.2861328,0.28515625,0.28442383,0.2841797,0.2836914,0.2836914,0.2836914,0.28393555,0.2841797,0.28442383,0.28466797,0.2849121,0.2854004,0.2854004,0.2866211,0.2866211,0.28686523,0.28515625,0.28637695,0.2890625,0.28857422,0.29248047,0.29785156,0.30078125,0.30444336,0.3100586,0.31689453,0.39453125,0.45166016,0.4855957,0.49536133,0.49926758,0.49951172,0.50341797,0.49853516,0.49658203,0.50146484,0.50097656,0.5078125,0.51220703,0.5136719,0.5126953,0.51464844,0.5151367,0.5161133,0.51660156,0.51660156,0.5185547,0.51953125,0.52197266,0.52441406,0.5253906,0.5263672,0.52783203,0.5292969,0.53125,0.5332031,0.53466797,0.53564453,0.5366211,0.53759766,0.5390625,0.54052734,0.5415039,0.54248047,0.54345703,0.5444336,0.54541016,0.54589844,0.546875,0.54785156,0.54833984,0.5488281,0.5498047,0.55029297,0.55029297,0.55126953,0.55126953,0.5517578,0.5527344,0.55322266,0.55322266,0.55371094,0.5546875,0.5551758,0.55615234,0.5571289,0.5571289,0.5576172,0.5576172,0.55810547,0.55859375,0.55908203,0.55908203,0.5600586,0.56152344,0.5605469,0.5625
0.42895508,0.43066406,0.43066406,0.43188477,0.43310547,0.43237305,0.43286133,0.43310547,0.4338379,0.4338379,0.43432617,0.43432617,0.4350586,0.4350586,0.43530273,0.43579102,0.43603516,0.4362793,0.43652344,0.43701172,0.4375,0.43774414,0.43798828,0.43847656,0.4387207,0.43920898,0.43945312,0.4399414,0.44018555,0.44067383,0.44091797,0.44140625,0.44189453,0.44213867,0.44262695,0.4428711,0.44360352,0.44384766,0.4440918,0.44458008,0.44506836,0.44555664,0.44604492,0.4465332,0.44702148,0.44726562,0.44750977,0.44799805,0.44848633,0.44873047,0.44921875,0.44970703,0.44995117,0.45043945,0.45092773,0.45141602,0.45166016,0.45263672,0.453125,0.45361328,0.45385742,0.45458984,0.45532227,0.4555664,0.4560547,0.4567871,0.4572754,0.45776367,0.4580078,0.45874023,0.45947266,0.45996094,0.46020508,0.45996094,0.46044922,0.46069336,0.46142578,0.46240234,0.46313477,0.4621582,0.46020508,0.45458984,0.44580078,0.4387207,0.4020996,0.34057617,0.32495117,0.32055664,0.32104492,0.32128906,0.32177734,0.32128906,0.3215332,0.32177734,0.32250977,0.32348633,0.32421875,0.3251953,0.3256836,0.32617188,0.32641602,0.3269043,0.32714844,0.32788086,0.32885742,0.32910156,0.33007812,0.33081055,0.33154297,0.33203125,0.3322754,0.3330078,0.3334961,0.33422852,0.33496094,0.33496094,0.33544922,0.33569336,0.33666992,0.33764648,0.33789062,0.33789062,0.33740234,0.33642578,0.33642578,0.33642578,0.33642578,0.33666992,0.3359375,0.3359375,0.33544922,0.3347168,0.3334961,0.3322754,0.3305664,0.32861328,0.32617188,0.3239746,0.32104492,0.31835938,0.31567383,0.31274414,0.30981445,0.30664062,0.30419922,0.30151367,0.29956055,0.29760742,0.29589844,0.2944336,0.2932129,0.2919922,0.29077148,0.28979492,0.28857422,0.28759766,0.28686523,0.2861328,0.28515625,0.28442383,0.28393555,0.2836914,0.2836914,0.2836914,0.28393555,0.28393555,0.2841797,0.28466797,0.2849121,0.2854004,0.28564453,0.2866211,0.2866211,0.2878418,0.28735352,0.28759766,0.2861328,0.28588867,0.28686523,0.2878418,0.28735352,0.28808594,0.28808594,0.28930664,0.28979492,0.29052734,0.29248047,0.29589844,0.30395508,0.36132812,0.47705078,0.49658203,0.49853516,0.5024414,0.5083008,0.51171875,0.51123047,0.5136719,0.51464844,0.51416016,0.5161133,0.5175781,0.5180664,0.51953125,0.5214844,0.5239258,0.5239258,0.5258789,0.5258789,0.52685547,0.52783203,0.52978516,0.53125,0.5336914,0.53466797,0.5361328,0.5371094,0.53808594,0.54003906,0.5410156,0.5419922,0.54296875,0.5439453,0.5449219,0.54541016,0.5463867,0.546875,0.54785156,0.54833984,0.5493164,0.5498047,0.55029297,0.55029297,0.55078125,0.55126953,0.5522461,0.5522461,0.5527344,0.55322266,0.5541992,0.5546875,0.55566406,0.55615234,0.5571289,0.5576172,0.55810547,0.5576172,0.55859375,0.55908203,0.55908203,0.55908203,0.5600586,0.56152344,0.56103516,0.56347656
0.42895508,0.43066406,0.43041992,0.43164062,0.43310547,0.43237305,0.43286133,0.43310547,0.4338379,0.4338379,0.43408203,0.4345703,0.43481445,0.4350586,0.43530273,0.43579102,0.43603516,0.4362793,0.43652344,0.43701172,0.43725586,0.43774414,0.43798828,0.43823242,0.4387207,0.43920898,0.43969727,0.4399414,0.4404297,0.44067383,0.4411621,0.44140625,0.44189453,0.44213867,0.44262695,0.4428711,0.44360352,0.4440918,0.44433594,0.44458008,0.4453125,0.44555664,0.44604492,0.4465332,0.44702148,0.44726562,0.44750977,0.44799805,0.44848633,0.44873047,0.44921875,0.44970703,0.44995117,0.45043945,0.45092773,0.45141602,0.4519043,0.45263672,0.453125,0.45336914,0.45385742,0.45458984,0.45532227,0.4555664,0.4560547,0.4567871,0.4572754,0.45776367,0.4580078,0.45874023,0.45947266,0.45996094,0.46020508,0.45996094,0.46020508,0.46069336,0.46142578,0.46264648,0.46313477,0.46142578,0.4584961,0.45239258,0.44189453,0.43286133,0.4020996,0.34375,0.32250977,0.31884766,0.3203125,0.31982422,0.31982422,0.31982422,0.32006836,0.32104492,0.32177734,0.32299805,0.32348633,0.32421875,0.32470703,0.32543945,0.32592773,0.32617188,0.3269043,0.32739258,0.328125,0.32885742,0.33007812,0.33081055,0.33154297,0.3322754,0.33276367,0.3334961,0.33398438,0.33447266,0.33496094,0.3347168,0.33544922,0.3359375,0.33691406,0.33789062,0.33789062,0.33813477,0.33740234,0.33618164,0.33642578,0.3359375,0.33618164,0.33642578,0.33569336,0.33569336,0.33520508,0.33422852,0.33325195,0.33203125,0.3305664,0.32861328,0.32641602,0.32421875,0.3215332,0.31884766,0.3161621,0.31323242,0.31030273,0.30737305,0.3046875,0.30200195,0.2998047,0.29785156,0.29638672,0.29492188,0.29345703,0.29248047,0.29125977,0.28979492,0.28881836,0.2878418,0.28686523,0.2861328,0.2854004,0.28442383,0.28393555,0.2836914,0.28393555,0.2836914,0.2836914,0.2836914,0.28393555,0.2841797,0.28466797,0.28515625,0.2854004,0.28588867,0.28588867,0.2866211,0.28637695,0.2866211,0.2866211,0.28710938,0.2866211,0.28637695,0.2861328,0.2861328,0.28588867,0.28637695,0.2866211,0.28735352,0.28833008,0.28930664,0.29077148,0.29248047,0.2956543,0.30200195,0.3076172,0.41015625,0.48608398,0.5019531,0.5102539,0.5107422,0.5126953,0.5048828,0.5048828,0.5097656,0.51123047,0.5180664,0.5209961,0.5234375,0.5253906,0.52734375,0.5292969,0.52685547,0.52734375,0.5292969,0.53125,0.5336914,0.53515625,0.5361328,0.5366211,0.5385742,0.54003906,0.5410156,0.54248047,0.54296875,0.5439453,0.5444336,0.54541016,0.54589844,0.546875,0.54785156,0.54833984,0.5488281,0.5493164,0.5498047,0.55029297,0.55078125,0.55126953,0.5517578,0.5522461,0.55322266,0.55371094,0.5541992,0.5551758,0.55566406,0.55615234,0.5571289,0.5576172,0.55810547,0.55810547,0.55908203,0.5595703,0.5595703,0.55908203,0.5600586,0.56152344,0.56152344,0.5644531
0.42895508,0.43066406,0.43041992,0.43164062,0.43286133,0.43237305,0.43286133,0.43286133,0.4338379,0.43359375,0.4338379,0.43432617,0.43481445,0.4350586,0.4350586,0.43554688,0.43603516,0.4362793,0.43652344,0.43676758,0.43725586,0.4375,0.43774414,0.43823242,0.4387207,0.43920898,0.43945312,0.43969727,0.4399414,0.44067383,0.44091797,0.44140625,0.4416504,0.44189453,0.4423828,0.4428711,0.44360352,0.44384766,0.44433594,0.44458008,0.44506836,0.44555664,0.44604492,0.44628906,0.44677734,0.44726562,0.44750977,0.44799805,0.4482422,0.44873047,0.44921875,0.4494629,0.44995117,0.45043945,0.45092773,0.45117188,0.45166016,0.45239258,0.45288086,0.45336914,0.45361328,0.4543457,0.45507812,0.4555664,0.4560547,0.4567871,0.4572754,0.45776367,0.4580078,0.45898438,0.45947266,0.46020508,0.46020508,0.45996094,0.46020508,0.4609375,0.46166992,0.46289062,0.4633789,0.46044922,0.45776367,0.45166016,0.43725586,0.42919922,0.3725586,0.3215332,0.31860352,0.3166504,0.3178711,0.31713867,0.31713867,0.3178711,0.31860352,0.31958008,0.3203125,0.32177734,0.32250977,0.32299805,0.32373047,0.3244629,0.3251953,0.3256836,0.32641602,0.3269043,0.32763672,0.32861328,0.32983398,0.33081055,0.33154297,0.33203125,0.33276367,0.33325195,0.33398438,0.33422852,0.33447266,0.3347168,0.33520508,0.3359375,0.33691406,0.33789062,0.33764648,0.33789062,0.3371582,0.3359375,0.33569336,0.33569336,0.3359375,0.33618164,0.33520508,0.33496094,0.33447266,0.3334961,0.33251953,0.33154297,0.33032227,0.32861328,0.32666016,0.3244629,0.32202148,0.3190918,0.3166504,0.3137207,0.31079102,0.30786133,0.30517578,0.30249023,0.30029297,0.29833984,0.29663086,0.29516602,0.2939453,0.2927246,0.2915039,0.2902832,0.28930664,0.28808594,0.28710938,0.28637695,0.2854004,0.28466797,0.28393555,0.28393555,0.28393555,0.2836914,0.2836914,0.28393555,0.2841797,0.2841797,0.28466797,0.2849121,0.28515625,0.28588867,0.28564453,0.2861328,0.28588867,0.28588867,0.2861328,0.2861328,0.28588867,0.2861328,0.28637695,0.28637695,0.28637695,0.2866211,0.2866211,0.28686523,0.28637695,0.28637695,0.28564453,0.28515625,0.2841797,0.2854004,0.2849121,0.2854004,0.28564453,0.28808594,0.29467773,0.30517578,0.49316406,0.50634766,0.5053711,0.51220703,0.5136719,0.515625,0.5214844,0.5239258,0.5288086,0.52978516,0.53125,0.5317383,0.53125,0.53271484,0.5336914,0.53515625,0.53466797,0.53515625,0.5366211,0.5385742,0.54003906,0.5415039,0.5419922,0.54345703,0.5444336,0.5449219,0.54589844,0.5463867,0.5473633,0.54785156,0.54833984,0.5488281,0.5493164,0.5493164,0.5498047,0.55078125,0.55126953,0.5517578,0.5522461,0.55322266,0.55371094,0.5541992,0.5546875,0.55566406,0.55615234,0.5571289,0.5571289,0.5576172,0.55810547,0.55908203,0.55908203,0.5595703,0.55908203,0.5600586,0.5620117,0.5620117,0.5649414
0.42895508,0.43041992,0.43041992,0.43139648,0.4326172,0.4321289,0.4326172,0.43286133,0.43359375,0.43359375,0.4338379,0.43432617,0.43481445,0.43481445,0.4350586,0.43530273,0.43579102,0.43603516,0.4362793,0.43676758,0.43725586,0.4375,0.43774414,0.43823242,0.4387207,0.43896484,0.43945312,0.43969727,0.44018555,0.4404297,0.44067383,0.4411621,0.44140625,0.44189453,0.4423828,0.4428711,0.44335938,0.44360352,0.4440918,0.44458008,0.44506836,0.4453125,0.44580078,0.4465332,0.44677734,0.44702148,0.44750977,0.44799805,0.4482422,0.44873047,0.4489746,0.4494629,0.44995117,0.45043945,0.45092773,0.45117188,0.45166016,0.45239258,0.45288086,0.45336914,0.45385742,0.4543457,0.45483398,0.4555664,0.4560547,0.4567871,0.4572754,0.45776367,0.4580078,0.45898438,0.4597168,0.46044922,0.46044922,0.46020508,0.46044922,0.46118164,0.46240234,0.4633789,0.46362305,0.46044922,0.4567871,0.44799805,0.44335938,0.42285156,0.328125,0.31567383,0.31591797,0.3154297,0.31591797,0.31567383,0.31518555,0.3161621,0.3166504,0.31811523,0.3190918,0.3203125,0.3215332,0.32226562,0.3232422,0.32373047,0.32470703,0.3251953,0.32592773,0.32666016,0.32739258,0.32836914,0.3293457,0.33032227,0.3310547,0.3317871,0.3322754,0.3330078,0.3334961,0.33398438,0.33447266,0.3347168,0.33496094,0.33569336,0.33666992,0.3371582,0.33740234,0.33740234,0.33666992,0.33544922,0.33544922,0.33520508,0.33520508,0.33520508,0.33422852,0.33398438,0.3334961,0.33276367,0.33203125,0.33154297,0.33007812,0.32836914,0.32666016,0.32470703,0.32226562,0.31958008,0.31689453,0.31396484,0.31103516,0.3083496,0.30566406,0.30297852,0.3005371,0.29882812,0.29711914,0.2956543,0.29418945,0.29296875,0.29174805,0.29052734,0.28955078,0.28833008,0.28759766,0.2866211,0.28564453,0.2849121,0.28442383,0.28393555,0.2841797,0.28393555,0.2841797,0.2841797,0.28442383,0.28466797,0.2849121,0.2854004,0.2854004,0.28588867,0.2861328,0.28637695,0.2861328,0.28588867,0.2854004,0.2854004,0.28466797,0.2849121,0.28466797,0.2849121,0.28466797,0.28515625,0.28564453,0.28588867,0.2861328,0.2861328,0.28515625,0.28466797,0.28344727,0.28271484,0.28198242,0.28222656,0.28222656,0.2836914,0.28393555,0.28320312,0.2861328,0.29296875,0.2980957,0.38793945,0.49902344,0.51123047,0.5229492,0.52246094,0.5205078,0.52783203,0.52978516,0.5332031,0.5336914,0.5332031,0.5361328,0.53759766,0.5366211,0.53564453,0.5366211,0.5385742,0.54052734,0.54248047,0.54296875,0.54345703,0.5449219,0.54541016,0.54589844,0.5473633,0.54785156,0.54785156,0.54833984,0.5488281,0.5493164,0.5498047,0.5498047,0.55078125,0.55126953,0.5517578,0.5522461,0.55322266,0.55371094,0.55371094,0.5546875,0.5551758,0.55615234,0.5566406,0.5571289,0.5576172,0.55810547,0.55908203,0.5595703,0.5595703,0.55908203,0.5600586,0.5620117,0.5629883,0.5654297
0.42871094,0.43017578,0.43017578,0.43115234,0.43237305,0.43188477,0.4326172,0.43286133,0.43359375,0.43359375,0.4338379,0.43432617,0.43481445,0.43481445,0.4350586,0.43530273,0.43579102,0.43603516,0.4362793,0.43676758,0.43701172,0.4375,0.43774414,0.43823242,0.4387207,0.43896484,0.43920898,0.43969727,0.4399414,0.4404297,0.44067383,0.44091797,0.44140625,0.44189453,0.4423828,0.44262695,0.44335938,0.44360352,0.4440918,0.44458008,0.44482422,0.4453125,0.44555664,0.44628906,0.44677734,0.44702148,0.44750977,0.44799805,0.4482422,0.44873047,0.4489746,0.4494629,0.44970703,0.45043945,0.45092773,0.45117188,0.45166016,0.45214844,0.45288086,0.45336914,0.45385742,0.4543457,0.45507812,0.4555664,0.4560547,0.4567871,0.45751953,0.45776367,0.45825195,0.45898438,0.4597168,0.46044922,0.46044922,0.46044922,0.46069336,0.46166992,0.46264648,0.46411133,0.46411133,0.46191406,0.45947266,0.44921875,0.4284668,0.32104492,0.31591797,0.3137207,0.31445312,0.31396484,0.31445312,0.31396484,0.31347656,0.31469727,0.31518555,0.3166504,0.3178711,0.31933594,0.32055664,0.32104492,0.32202148,0.32250977,0.32373047,0.32421875,0.32495117,0.32592773,0.32666016,0.32763672,0.32861328,0.3293457,0.33032227,0.3310547,0.33154297,0.3322754,0.33325195,0.33374023,0.33422852,0.33447266,0.3347168,0.33569336,0.33642578,0.3371582,0.3371582,0.33666992,0.33642578,0.33520508,0.3347168,0.33447266,0.33422852,0.33422852,0.33325195,0.3330078,0.33251953,0.3322754,0.33154297,0.33081055,0.32958984,0.32788086,0.32617188,0.32470703,0.32226562,0.31982422,0.3173828,0.31445312,0.31152344,0.3088379,0.30615234,0.3034668,0.30126953,0.2993164,0.29736328,0.29589844,0.2944336,0.2932129,0.2919922,0.29077148,0.28979492,0.28857422,0.2878418,0.28686523,0.2861328,0.28515625,0.28466797,0.28442383,0.28442383,0.28393555,0.2841797,0.2841797,0.2841797,0.28466797,0.2849121,0.28515625,0.28515625,0.28564453,0.28588867,0.28588867,0.28588867,0.28564453,0.28564453,0.2854004,0.28515625,0.2849121,0.28466797,0.2849121,0.2849121,0.28466797,0.28466797,0.2849121,0.2849121,0.2849121,0.28466797,0.28466797,0.2836914,0.2836914,0.28320312,0.28320312,0.28222656,0.28173828,0.28027344,0.27954102,0.27905273,0.2800293,0.27856445,0.27978516,0.28125,0.28710938,0.4868164,0.5288086,0.53125,0.53271484,0.53466797,0.5317383,0.53759766,0.5390625,0.54052734,0.54052734,0.54003906,0.5395508,0.5419922,0.54296875,0.54296875,0.5444336,0.5439453,0.5439453,0.5444336,0.54541016,0.54589844,0.5473633,0.54785156,0.54833984,0.5488281,0.5493164,0.5498047,0.55029297,0.55029297,0.55078125,0.5517578,0.5522461,0.5527344,0.55322266,0.55371094,0.5541992,0.5546875,0.5551758,0.55615234,0.5571289,0.5576172,0.55810547,0.55859375,0.5595703,0.5595703,0.5595703,0.55908203,0.56103516,0.5625,0.5644531,0.5649414
0.42871094,0.43017578,0.42993164,0.43115234,0.43237305,0.43164062,0.43237305,0.4326172,0.4333496,0.43359375,0.43359375,0.43408203,0.4345703,0.43481445,0.43481445,0.43530273,0.43554688,0.43579102,0.4362793,0.43676758,0.43676758,0.43725586,0.4375,0.43798828,0.43847656,0.4387207,0.43896484,0.43945312,0.4399414,0.44018555,0.4404297,0.44091797,0.44140625,0.4416504,0.44213867,0.4423828,0.44311523,0.44360352,0.44384766,0.44433594,0.44482422,0.4453125,0.44580078,0.44628906,0.4465332,0.44702148,0.44726562,0.4477539,0.44799805,0.44848633,0.4489746,0.44921875,0.44970703,0.4501953,0.4506836,0.45092773,0.45141602,0.4519043,0.45263672,0.453125,0.45361328,0.45410156,0.45483398,0.4555664,0.4560547,0.4567871,0.4572754,0.45776367,0.45825195,0.45922852,0.45996094,0.46044922,0.46069336,0.46044922,0.46069336,0.4621582,0.46313477,0.4645996,0.4633789,0.4609375,0.45776367,0.43945312,0.32885742,0.31469727,0.31396484,0.31274414,0.31323242,0.3125,0.3125,0.31225586,0.31201172,0.31347656,0.31396484,0.3154297,0.3166504,0.31811523,0.3190918,0.31982422,0.32055664,0.3215332,0.32226562,0.32299805,0.3239746,0.32495117,0.32592773,0.3269043,0.328125,0.32910156,0.32983398,0.3305664,0.3310547,0.3317871,0.33276367,0.33325195,0.33398438,0.33447266,0.33447266,0.33569336,0.33642578,0.3371582,0.33740234,0.33691406,0.33618164,0.33447266,0.33447266,0.33398438,0.33374023,0.3334961,0.33251953,0.3322754,0.3317871,0.33129883,0.3305664,0.32983398,0.32885742,0.32739258,0.32592773,0.3239746,0.32202148,0.31982422,0.31762695,0.3149414,0.31225586,0.3095703,0.30688477,0.30419922,0.30200195,0.2998047,0.2980957,0.29638672,0.29492188,0.29370117,0.29248047,0.29101562,0.29003906,0.2890625,0.28808594,0.28710938,0.28637695,0.28564453,0.28515625,0.28466797,0.28466797,0.28442383,0.2841797,0.28442383,0.28442383,0.28442383,0.28466797,0.2849121,0.2849121,0.2854004,0.28564453,0.28564453,0.28515625,0.2854004,0.2854004,0.2854004,0.28515625,0.2849121,0.2849121,0.2849121,0.28466797,0.28442383,0.2841797,0.28393555,0.28344727,0.28344727,0.28295898,0.28271484,0.28198242,0.28173828,0.28173828,0.28173828,0.28125,0.28100586,0.28100586,0.28027344,0.27905273,0.27807617,0.27661133,0.27612305,0.27734375,0.27856445,0.27905273,0.28686523,0.29296875,0.3762207,0.51904297,0.5341797,0.54003906,0.53515625,0.53271484,0.53125,0.53271484,0.5385742,0.54296875,0.54296875,0.54345703,0.5449219,0.54541016,0.5449219,0.54541016,0.5463867,0.5463867,0.5473633,0.54833984,0.5488281,0.5493164,0.5488281,0.5498047,0.55029297,0.55029297,0.55126953,0.55126953,0.5522461,0.5527344,0.5527344,0.55322266,0.55371094,0.5546875,0.5551758,0.55615234,0.5566406,0.5571289,0.55810547,0.55859375,0.5595703,0.5595703,0.5605469,0.5605469,0.5620117,0.56347656,0.5644531,0.56591797
0.42895508,0.43017578,0.42993164,0.4309082,0.4321289,0.43164062,0.43237305,0.4326172,0.4333496,0.4333496,0.43359375,0.43408203,0.4345703,0.4345703,0.43481445,0.43530273,0.43554688,0.43579102,0.4362793,0.43652344,0.43676758,0.43725586,0.4375,0.43798828,0.43847656,0.4387207,0.43896484,0.43945312,0.4399414,0.44018555,0.4404297,0.44091797,0.44140625,0.44189453,0.44213867,0.4423828,0.44311523,0.44335938,0.44384766,0.44433594,0.44482422,0.4453125,0.44580078,0.44604492,0.4465332,0.44702148,0.44726562,0.4477539,0.44799805,0.44873047,0.4489746,0.4494629,0.44995117,0.4501953,0.4506836,0.45092773,0.45141602,0.4519043,0.45263672,0.453125,0.45361328,0.45410156,0.45483398,0.4555664,0.4560547,0.4567871,0.45751953,0.45776367,0.45825195,0.45922852,0.45996094,0.46020508,0.46044922,0.46069336,0.46118164,0.46264648,0.4633789,0.4645996,0.46240234,0.46142578,0.45825195,0.4086914,0.3232422,0.3166504,0.31347656,0.31201172,0.31176758,0.31054688,0.31030273,0.31030273,0.31054688,0.31176758,0.31274414,0.31420898,0.31567383,0.31689453,0.31811523,0.31884766,0.31958008,0.32006836,0.32128906,0.32202148,0.3227539,0.3239746,0.32495117,0.32617188,0.32739258,0.32836914,0.3293457,0.33007812,0.3305664,0.3310547,0.33203125,0.33276367,0.3334961,0.33422852,0.33422852,0.33544922,0.33569336,0.33666992,0.33691406,0.33642578,0.33569336,0.33422852,0.33374023,0.33325195,0.33276367,0.33276367,0.33154297,0.33129883,0.3310547,0.33032227,0.33007812,0.32885742,0.328125,0.3269043,0.32543945,0.32373047,0.32202148,0.32006836,0.3178711,0.3154297,0.31298828,0.31030273,0.3076172,0.30493164,0.30297852,0.30078125,0.29882812,0.29711914,0.2956543,0.29418945,0.29296875,0.2915039,0.29052734,0.28955078,0.28857422,0.28759766,0.28686523,0.2861328,0.2854004,0.28515625,0.2849121,0.28466797,0.28442383,0.28442383,0.28466797,0.28466797,0.28466797,0.2849121,0.2849121,0.2854004,0.2854004,0.2854004,0.28515625,0.28515625,0.28515625,0.2849121,0.2849121,0.28466797,0.28466797,0.28442383,0.28442383,0.28393555,0.2836914,0.28344727,0.28320312,0.28271484,0.28222656,0.28198242,0.28125,0.28100586,0.28076172,0.28027344,0.2800293,0.27954102,0.27954102,0.27905273,0.2783203,0.2783203,0.27734375,0.2770996,0.2758789,0.27539062,0.2746582,0.27612305,0.27490234,0.27563477,0.2770996,0.28125,0.34179688,0.53271484,0.53466797,0.5336914,0.5366211,0.54052734,0.53808594,0.54541016,0.5488281,0.5493164,0.5498047,0.54833984,0.54833984,0.5498047,0.55029297,0.55126953,0.5493164,0.5493164,0.5488281,0.5493164,0.5493164,0.55029297,0.55029297,0.55126953,0.5517578,0.5522461,0.5527344,0.5527344,0.55322266,0.55371094,0.5541992,0.5551758,0.55566406,0.55615234,0.5571289,0.55810547,0.55810547,0.5595703,0.5600586,0.56152344,0.56152344,0.5625,0.5649414,0.5654297,0.56591797
